# .PCD v0.7 - Point Cloud Data file format
VERSION 0.7
FIELDS x y z
SIZE 4 4 4
TYPE F F F
COUNT 1 1 1
WIDTH 1382
HEIGHT 1
VIEWPOINT 0 0 0 1 0 0 0
POINTS 1382
DATA ascii
-0.096230388 0.79899991 -0.65620655
-0.1374241 0.79899985 -0.66106462
-0.1793398 0.79899979 -0.66770798
-0.20846774 0.74956369 -0.63438606
-0.23954397 0.71867931 -0.6177001
-0.26440537 0.67727792 -0.59283882
-0.28691226 0.63790387 -0.57033187
-0.30732125 0.60033822 -0.54992294
-0.32585171 0.56438965 -0.53139257
-0.34269226 0.52989072 -0.51455212
-0.35800558 0.4966934 -0.49923882
-0.37193254 0.46466646 -0.48531175
-0.3845956 0.43369302 -0.47264874
-0.39610124 0.40366799 -0.46114317
-0.4065423 0.37449664 -0.4507021
-0.41599995 0.34609321 -0.44124442
-0.42454511 0.31837949 -0.4326992
-0.43223983 0.29128385 -0.42500451
-0.43913817 0.2647402 -0.41810608
-0.44528735 0.23868752 -0.41195682
-0.45072842 0.21306883 -0.40651578
-0.45549676 0.18783078 -0.40174747
-0.45962271 0.16292302 -0.39762142
-0.46313214 0.13829795 -0.39411187
-0.41991591 0.10263482 -0.35247526
-0.46637094 0.089329898 -0.38718837
-0.29084826 -0.60535252 -0.54761618
-0.24861977 -0.59228498 -0.52376711
-0.25228268 -0.6977095 -0.60495585
-0.22613434 -0.74021751 -0.63110459
-0.18140082 -0.72239 -0.60731876
-0.1332545 -0.67269933 -0.55917203
-0.12910847 -0.88359672 -0.72812855
-0.089015745 -0.93793344 -0.76822031
-0.0440231 -0.9963547 -0.81321263
0.006318341 -1.0010003 -0.81622428
0.056897271 -1.001 -0.81752527
0.10776747 -1.001 -0.82092434
0.1591939 -1.0009998 -0.82646501
0.21145329 -1.0009999 -0.83421987
0.25687695 -0.9709028 -0.81890649
0.29145828 -0.9126513 -0.7811954
0.31971273 -0.85046357 -0.74084336
0.34473586 -0.79305792 -0.70510638
0.3669849 -0.73974776 -0.67333084
0.38683364 -0.68996888 -0.64498377
0.40458938 -0.64325106 -0.61962551
0.42050773 -0.59920037 -0.59689164
0.43480203 -0.55748248 -0.57647693
0.44765192 -0.51781249 -0.55812526
0.4592092 -0.47994474 -0.54161948
0.46960291 -0.4436664 -0.52677554
0.36733082 -0.31352717 -0.39378574
0.37511477 -0.28877422 -0.38600165
0.38213059 -0.26458549 -0.37898579
0.50151789 -0.31103888 -0.48119575
0.50745994 -0.28031108 -0.47270954
0.51270258 -0.25032598 -0.46522194
0.51728964 -0.22098725 -0.458671
0.52125776 -0.19220613 -0.45300373
0.52463841 -0.16390043 -0.44817576
0.52745736 -0.13599312 -0.4441497
0.52973604 -0.10841168 -0.44089538
0.53149128 -0.081086926 -0.43838853
0.532736 -0.053952418 -0.43661085
0.53347927 -0.026943678 -0.43554941
0.53372639 2.504682e-06 -0.43519643
0.55373788 -2.5985923e-06 -0.40661681
0.55349821 0.027954746 -0.40695891
0.55277765 0.05598212 -0.40798801
0.55157059 0.084150322 -0.40971193
0.54986775 0.11253168 -0.41214377
0.54765612 0.14120093 -0.41530237
0.5449183 0.17023599 -0.4192124
0.54163253 0.19971903 -0.42390496
0.53777224 0.22973746 -0.42941812
0.53330517 0.26038516 -0.43579769
0.52819335 0.29176381 -0.44309819
0.52239174 0.32398474 -0.45138395
0.51584733 0.35717034 -0.46073031
0.50849837 0.39145681 -0.47122577
0.50027239 0.42699653 -0.48297384
0.37862641 0.35771456 -0.38249004
0.36908346 0.3857494 -0.3920331
0.46940714 0.54297739 -0.52705431
0.45666254 0.58551103 -0.54525572
0.44243723 0.63044864 -0.56557161
0.42653596 0.67814368 -0.58828115
0.40872443 0.72901404 -0.61371911
0.38871932 0.78355879 -0.64228958
0.34731922 0.79900086 -0.63975167
0.30036643 0.79900074 -0.62680477
0.25516358 0.79900068 -0.6159088
0.21139587 0.79900068 -0.60690421
0.16878253 0.79900056 -0.59966403
0.12706895 0.79900044 -0.59408957
0.086020224 0.79900044 -0.59010667
0.045415524 0.79900038 -0.58766323
0.005043311 0.7990002 -0.5867278
-0.035303157 0.7990002 -0.58728856
-0.075830095 0.79900002 -0.58935237
-0.11674746 0.79899997 -0.59294611
-0.15827328 0.79899991 -0.59811628
-0.20063849 0.79899991 -0.60493141
-0.24399778 0.79869086 -0.61324662
-0.27132389 0.75036961 -0.58592051
-0.2958855 0.70488578 -0.56135905
-0.31801584 0.66189736 -0.53922874
-0.33799556 0.6211127 -0.51924902
-0.35606241 0.58228117 -0.50118226
-0.37241873 0.54518533 -0.48482597
-0.38723767 0.50963575 -0.470007
-0.400668 0.47546634 -0.4565767
-0.41283786 0.44253042 -0.44440687
-0.42385814 0.41069767 -0.43338662
-0.4338249 0.37985167 -0.42341989
-0.44282144 0.3498877 -0.41442332
-0.45092019 0.32071117 -0.40632433
-0.45818433 0.29223615 -0.39906025
-0.46466839 0.26438379 -0.39257622
-0.47041959 0.23708157 -0.38682485
-0.47547904 0.21026237 -0.3817654
-0.47988179 0.18386355 -0.37736273
-0.48365751 0.15782616 -0.37358677
-0.48683158 0.13209468 -0.37041259
-0.48942494 0.10661615 -0.36781946
-0.46700114 0.077292547 -0.34759006
-0.33303586 -0.65057051 -0.53667915
-0.28560302 -0.63499296 -0.51127642
-0.28392854 -0.72728688 -0.57331049
-0.25803044 -0.77414238 -0.59920835
-0.22917774 -0.82402831 -0.62806076
-0.18101607 -0.80646801 -0.60693407
-0.12894292 -0.74968934 -0.55858976
-0.12004344 -0.99671942 -0.73719305
-0.06957496 -1.0010002 -0.73682064
-0.018947633 -1.001 -0.73517883
0.031582963 -1.001 -0.7354129
0.082274862 -1.0009999 -0.7375257
0.1333894 -1.0009998 -0.74154443
0.18519671 -1.0009998 -0.74752122
0.23798138 -1.0009996 -0.75553453
0.2920492 -1.0009995 -0.76569241
0.32664493 -0.94029063 -0.73094314
0.35382158 -0.87362504 -0.69213039
0.37778756 -0.81239879 -0.65790296
0.3990145 -0.75579792 -0.6275875
0.41788411 -0.7031582 -0.60063851
0.43470865 -0.65393209 -0.57661039
0.44974542 -0.60766333 -0.55513549
0.46320811 -0.56396788 -0.53590828
0.36510593 -0.40139925 -0.39844418
0.3739734 -0.37162206 -0.38714311
0.38304892 -0.34402508 -0.37806752
0.50449955 -0.40906331 -0.47693747
0.51227731 -0.37417024 -0.46582955
0.51921564 -0.34045205 -0.45592043
0.52538151 -0.30776474 -0.44711444
0.53083223 -0.27597943 -0.43932992
0.53561652 -0.24497941 -0.43249714
0.53977585 -0.21465847 -0.42655689
0.54334527 -0.18491897 -0.42145917
0.54635412 -0.15567045 -0.41716215
0.5488264 -0.12682822 -0.4136312
0.55078179 -0.0983124 -0.4108386
0.55223536 -0.070046768 -0.40876263
0.55319828 -0.041957889 -0.40738732
0.55367798 -0.013974307 -0.40670231
0.55367798 0.013974307 -0.40670231
0.55319822 0.041957885 -0.40738729
0.55223531 0.07004676 -0.40876257
0.55078167 0.098312393 -0.41083854
0.54882634 0.12682821 -0.41363114
0.546354 0.1556704 -0.41716203
0.54334515 0.18491893 -0.42145905
0.53977573 0.21465841 -0.4265568
0.5356164 0.24497935 -0.43249702
0.53083205 0.27597934 -0.43932977
0.52538133 0.30776462 -0.44711426
0.5192154 0.3404519 -0.45592025
0.51227701 0.37417006 -0.46582931
0.50449926 0.40906307 -0.4769372
0.38304889 0.34402505 -0.37806746
0.3739734 0.37162206 -0.38714311
0.36510456 0.40139773 -0.39844269
0.46320781 0.56396753 -0.53590792
0.44974503 0.6076628 -0.55513495
0.43470824 0.6539315 -0.57660985
0.41788375 0.7031576 -0.60063797
0.39901406 0.75579709 -0.62758678
0.37155715 0.7990008 -0.64705294
0.32359844 0.79900068 -0.6330092
0.27756262 0.79900068 -0.6211102
0.23311451 0.79900068 -0.61117792
0.18995738 0.79900056 -0.60306966
0.14782447 0.7990005 -0.59667325
0.10647174 0.79900038 -0.59190249
0.06567198 0.79900038 -0.58869469
0.025209585 0.79900032 -0.58700812
-0.015124038 0.79900014 -0.58682114
-0.055534855 0.79900014 -0.58813155
-0.096230403 0.79900002 -0.59095591
-0.13742411 0.79899997 -0.59533083
-0.17933981 0.79899985 -0.60131365
-0.22221684 0.79899979 -0.60898441
-0.25803214 0.77414739 -0.59921223
-0.28393033 0.72729141 -0.57331413
-0.30723798 0.68309486 -0.55000657
-0.32826063 0.64124233 -0.52898395
-0.34725636 0.6014635 -0.50998825
-0.36444446 0.56352526 -0.49280021
-0.38001201 0.5272249 -0.47723284
-0.39411926 0.492385 -0.46312556
-0.40690428 0.45884961 -0.45034036
-0.41848639 0.42648074 -0.43875831
-0.42896861 0.39515519 -0.42827606
-0.43844047 0.36476272 -0.41880423
-0.44697964 0.33520383 -0.41026497
-0.45465374 0.30638844 -0.4025909
-0.46152136 0.27823421 -0.39572322
-0.46763343 0.25066569 -0.38961112
-0.47303402 0.22361316 -0.38421056
-0.47776091 0.19701172 -0.37948355
-0.48184699 0.17080089 -0.37539795
-0.48531806 0.14492297 -0.37192512
-0.48820025 0.11932472 -0.36904451
-0.44195691 0.084653571 -0.33043435
-0.51204902 0.071523473 -0.3796545
-0.35829601 -0.65841752 -0.55043572
-0.30878595 -0.64268684 -0.52357852
-0.26659614 -0.63510996 -0.50579077
-0.27132213 -0.75036478 -0.58591676
-0.24399623 -0.79868579 -0.61324275
-0.21137051 -0.84173793 -0.63728887
-0.15326239 -0.77370375 -0.57918006
-0.14101891 -0.96510971 -0.71621782
-0.095001183 -1.0010003 -0.73835027
-0.044228353 -1.001 -0.73576432
0.0063183391 -1.001 -0.73506182
0.056897264 -1.0009999 -0.73623353
0.10776745 -1.0009999 -0.73929459
0.15919389 -1.0009997 -0.74428427
0.21145324 -1.0009997 -0.75126797
0.26483983 -1.0009997 -0.76033849
0.31167704 -0.97596288 -0.75231993
0.34067082 -0.90621388 -0.71091199
0.36617631 -0.84238118 -0.67448586
0.38871971 -0.78355956 -0.64229023
0.40872484 -0.72901475 -0.6137197
0.42653632 -0.67814422 -0.58828169
0.44243765 -0.6304493 -0.5655722
0.45666286 -0.58551145 -0.54525614
0.46940753 -0.54297787 -0.52705473
0.36908343 -0.38574934 -0.39203307
0.37862641 -0.35771456 -0.38249004
0.50027269 -0.42699683 -0.48297414
0.50849861 -0.39145702 -0.47122601
0.5158475 -0.35717049 -0.46073049
0.52239197 -0.32398489 -0.45138416
0.52819353 -0.29176396 -0.4430984
0.53330541 -0.26038525 -0.43579787
0.53777242 -0.22973754 -0.42941827
0.54163271 -0.19971909 -0.42390504
0.54491842 -0.17023604 -0.41921249
0.54765618 -0.14120096 -0.41530246
0.54986787 -0.11253171 -0.41214386
0.55157065 -0.084150329 -0.40971196
0.55277771 -0.055982128 -0.40798807
0.55349827 -0.027954748 -0.40695891
0.55373788 2.5985923e-06 -0.40661681
0.57370365 -2.6922883e-06 -0.37810242
0.5734728 0.028963573 -0.37843201
0.57277846 0.058007687 -0.37942362
0.57161504 0.087208405 -0.38108504
0.56997335 0.11664633 -0.38342971
0.56783992 0.14640488 -0.38647655
0.56519741 0.17657131 -0.39025062
0.56202346 0.20723787 -0.39478338
0.5582912 0.2385032 -0.40011376
0.55396765 0.27047357 -0.40628827
0.54901415 0.30326483 -0.41336274
0.54338431 0.33700424 -0.42140302
0.53702378 0.37183285 -0.43048683
0.5298686 0.40790826 -0.44070545
0.52184373 0.44540831 -0.45216641
0.51286042 0.48453477 -0.46499595
0.50281453 0.52551907 -0.47934332
0.37909207 0.43850723 -0.38202438
0.36739954 0.47106224 -0.39371702
0.46494338 0.66251868 -0.53342915
0.44915068 0.71409845 -0.55598372
0.43138376 0.76942998 -0.5813579
0.3963801 0.79900098 -0.58782399
0.34731925 0.79900098 -0.57418549
0.30036649 0.79900086 -0.56256551
0.25516361 0.7990008 -0.55278617
0.21139589 0.79900074 -0.54470444
0.16878258 0.79900074 -0.5382064
0.12706897 0.79900056 -0.53320318
0.086020216 0.79900032 -0.52962834
0.045415524 0.79900038 -0.52743536
0.005043312 0.79900032 -0.52659589
-0.035303153 0.79900008 -0.52709895
-0.075830124 0.79900026 -0.52895159
-0.11674749 0.79900014 -0.53217691
-0.15827331 0.79900008 -0.53681725
-0.2006385 0.79899997 -0.54293388
-0.2440922 0.79899991 -0.55060977
-0.28890789 0.79899967 -0.55995202
-0.3171719 0.75559616 -0.54007298
-0.33993027 0.70750856 -0.51731473
-0.36036667 0.66222268 -0.49687827
-0.37875709 0.61939454 -0.47848797
-0.39533353 0.57873034 -0.46191144
-0.41029269 0.53997797 -0.44695234
-0.4238016 0.50291866 -0.43344346
-0.43600318 0.46736187 -0.42124194
-0.44701973 0.4331401 -0.41022524
-0.45695689 0.40010574 -0.40028816
-0.46590528 0.36812699 -0.39133966
-0.47394344 0.33708614 -0.38330138
-0.48113936 0.30687717 -0.37610564
-0.48755127 0.27740356 -0.36969358
-0.4932299 0.24857749 -0.36401483
-0.49821869 0.22031812 -0.35902604
-0.50255483 0.19255058 -0.35468999
-0.50626963 0.1652049 -0.35097498
-0.50938976 0.13821551 -0.34785473
-0.51193732 0.11152024 -0.34530759
-0.51392943 0.085059561 -0.34331566
-0.49184272 0.056091994 -0.3262527
-0.34566423 -0.6752395 -0.49994114
-0.29836166 -0.66335976 -0.47937647
-0.3048217 -0.78080487 -0.55241752
-0.27794167 -0.83388001 -0.57929701
-0.24778314 -0.89092565 -0.60945511
-0.21197379 -0.94439167 -0.63789213
-0.17216717 -1.0010003 -0.66940129
-0.120559 -1.0010002 -0.66448188
-0.069574945 -1.001 -0.66130596
-0.018947631 -1.0009999 -0.65983242
0.031582955 -1.0009998 -0.66004252
0.082274847 -1.0009998 -0.66193879
0.1333894 -1.0009997 -0.6655457
0.18519667 -1.0009996 -0.67090982
0.23798133 -1.0009995 -0.67810184
0.29204917 -1.0009993 -0.68721879
0.34773439 -1.0009993 -0.69838685
0.37610117 -0.92863578 -0.6603117
0.40032968 -0.86087364 -0.62570947
0.42166373 -0.79869926 -0.59524065
0.44053078 -0.74126488 -0.5682956
0.45727569 -0.68787968 -0.54438108
0.4721801 -0.63797539 -0.52309507
0.37339336 -0.4546161 -0.38772306
0.49735448 -0.54679394 -0.48714176
0.50797689 -0.50478303 -0.47197121
0.51747751 -0.46475849 -0.45840287
0.52596974 -0.42647201 -0.44627461
0.53354967 -0.38970771 -0.43544921
0.54029882 -0.35427636 -0.42581016
0.54628664 -0.32001084 -0.41725853
0.55157214 -0.28676212 -0.40970999
0.55620539 -0.25439632 -0.40309295
0.56022882 -0.22279222 -0.39734676
0.56367821 -0.19183896 -0.39242038
0.56658345 -0.16143432 -0.3882713
0.56896901 -0.13148297 -0.3848643
0.57085466 -0.10189534 -0.38217121
0.57225591 -0.072586216 -0.38017011
0.57318377 -0.043473709 -0.37884477
0.57364595 -0.014478279 -0.37818477
0.57364595 0.014478279 -0.37818477
0.57318372 0.043473706 -0.37884477
0.57225585 0.072586209 -0.38017008
0.57085454 0.10189532 -0.38217112
0.56896889 0.13148294 -0.38486424
0.56658334 0.16143428 -0.38827121
0.56367803 0.19183889 -0.39242026
0.56022865 0.22279215 -0.39734665
0.55620521 0.25439623 -0.4030928
0.55157197 0.286762 -0.40970984
0.5462864 0.32001069 -0.41725832
0.54029858 0.35427621 -0.42580998
0.53354937 0.38970751 -0.43544897
0.52596939 0.42647171 -0.44627431
0.51747715 0.46475819 -0.45840257
0.50797653 0.50478262 -0.47197086
0.49735421 0.5467937 -0.48714149
0.37339336 0.4546161 -0.38772306
0.47217965 0.6379748 -0.52309453
0.45727527 0.68787903 -0.54438055
0.44053033 0.74126416 -0.568295
0.42166328 0.79869837 -0.59524
0.37155721 0.79900092 -0.58073848
0.32359853 0.79900098 -0.56813413
0.27756262 0.79900068 -0.55745447
0.23311451 0.79900068 -0.54854006
0.18995738 0.79900062 -0.54126287
0.1478245 0.79900062 -0.5355221
0.10647175 0.7990005 -0.53124022
0.065672003 0.79900062 -0.52836126
0.025209589 0.79900044 -0.52684748
-0.015124039 0.7990002 -0.52667964
-0.055534862 0.7990002 -0.52785575
-0.096230425 0.7990002 -0.53039074
-0.13742413 0.79900008 -0.53431726
-0.17933986 0.79900002 -0.53968692
-0.22221689 0.79899997 -0.54657155
-0.26631576 0.79899991 -0.55506575
-0.30482373 0.78081012 -0.55242121
-0.32886261 0.73117381 -0.52838224
-0.35042226 0.68453407 -0.50682276
-0.36980391 0.64051682 -0.48744109
-0.38726059 0.59880489 -0.4699845
-0.40300563 0.55912602 -0.45423943
-0.41722023 0.52124578 -0.44002482
-0.43005881 0.48496005 -0.42718619
-0.44165361 0.45009056 -0.41559139
-0.45211822 0.41648006 -0.40512687
-0.46155035 0.3839891 -0.3956947
-0.47003445 0.35249335 -0.38721052
-0.47764355 0.32188112 -0.37960142
-0.48444054 0.29205135 -0.37280434
-0.49047992 0.26291209 -0.3667649
-0.49580851 0.23437914 -0.36143619
-0.50046629 0.20637462 -0.35677785
-0.50448805 0.17882651 -0.35275599
-0.5079034 0.15166728 -0.34934205
-0.51073384 0.12483233 -0.34651029
-0.51300138 0.09826161 -0.34424254
-0.46377245 0.064780161 -0.30861902
-0.52830315 0.046779085 -0.34954324
-0.37079063 -0.68137813 -0.51125097
-0.32154185 -0.66923612 -0.48933074
-0.31716982 -0.75559121 -0.54006946
-0.2917597 -0.80688655 -0.56547928
-0.26330018 -0.8618744 -0.59393805
-0.23130897 -0.92113853 -0.62592906
-0.17808093 -0.89899343 -0.6039989
-0.14626314 -1.0010003 -0.66671979
-0.095001154 -1.0009999 -0.66267872
-0.044228345 -1.0009999 -0.66035789
0.0063183377 -1.0009998 -0.65972733
0.05689726 -1.0009998 -0.66077906
0.10776742 -1.0009996 -0.6635263
0.15919389 -1.0009997 -0.66800481
0.21145323 -1.0009996 -0.67427272
0.26483974 -1.0009995 -0.6824134
0.3196725 -1.0009992 -0.6925382
0.3627421 -0.96492541 -0.67939067
0.38860995 -0.89398938 -0.64244694
0.41133156 -0.82913929 -0.60999674
0.43138415 -0.76943064 -0.58135843
0.4491511 -0.71409917 -0.55598426
0.4649438 -0.66251928 -0.53342962
0.36739954 -0.47106224 -0.39371702
0.37909207 -0.43850723 -0.38202438
0.50281483 -0.52551937 -0.47934362
0.51286077 -0.48453507 -0.46499625
0.52184409 -0.44540861 -0.45216671
0.5298689 -0.40790847 -0.44070566
0.53702408 -0.37183303 -0.43048707
0.54338449 -0.33700436 -0.4214032
0.54901439 -0.30326498 -0.41336292
0.55396789 -0.27047366 -0.40628842
0.55829132 -0.23850326 -0.40011385
0.56202364 -0.20723794 -0.39478353
0.56519747 -0.17657134 -0.39025068
0.5678401 -0.14640492 -0.38647664
0.56997341 -0.11664636 -0.38342977
0.57161516 -0.08720842 -0.3810851
0.57277852 -0.058007691 -0.37942362
0.5734728 -0.028963575 -0.37843201
0.57370365 2.6922883e-06 -0.37810242
0.59372652 -2.786252e-06 -0.34950647
0.59350568 0.029975345 -0.34982178
0.59284145 0.060039546 -0.35077056
0.59172797 0.090276934 -0.35236055
0.59015632 0.12077683 -0.35460529
0.58811277 0.15163177 -0.35752362
0.58557993 0.18293896 -0.36114082
0.58253562 0.21480143 -0.36548862
0.57895249 0.24732976 -0.37060609
0.57479721 0.28064355 -0.37654027
0.57003063 0.31487393 -0.38334775
0.56460571 0.35016567 -0.39109546
0.55846697 0.38667998 -0.39986256
0.5515489 0.42459834 -0.40974262
0.54377419 0.46412659 -0.42084613
0.53505135 0.50550008 -0.43330368
0.52527201 0.54899061 -0.4472703
0.51430678 0.5949142 -0.46293026
0.5020014 0.64364231 -0.48050445
0.3759039 0.53564233 -0.38521257
0.47258618 0.75135827 -0.52251405
0.45497558 0.81150907 -0.54766476
0.39638022 0.79900122 -0.52504241
0.34731928 0.79900104 -0.51286042
0.30036652 0.79900098 -0.50248152
0.25516364 0.79900086 -0.49374667
0.21139592 0.79900086 -0.4865281
0.16878259 0.79900086 -0.48072404
0.127069 0.79900062 -0.47625518
0.086020246 0.79900062 -0.47306225
0.045415528 0.79900044 -0.4711034
0.0050433124 0.79900038 -0.47035354
-0.035303161 0.79900026 -0.47080299
-0.075830139 0.7990005 -0.47245771
-0.11674751 0.79900026 -0.47533855
-0.15827334 0.79900014 -0.47948325
-0.20063853 0.79900008 -0.48494661
-0.24409221 0.79899997 -0.49180266
-0.28890792 0.79899979 -0.50014716
-0.33539116 0.79899979 -0.51010114
-0.36334899 0.75625074 -0.49389642
-0.38414785 0.7059238 -0.47309759
-0.40276811 0.65866059 -0.4544774
-0.41947412 0.61406988 -0.4377712
-0.43448752 0.57182032 -0.42275786
-0.44799459 0.53162807 -0.40925083
-0.46015322 0.49324885 -0.39709222
-0.47109762 0.4564704 -0.38614777
-0.48094246 0.4211072 -0.3763029
-0.48978585 0.38699579 -0.36745945
-0.49771205 0.35399124 -0.35953316
-0.50479341 0.32196406 -0.35245168
-0.51109231 0.29079774 -0.34615281
-0.516662 0.26038677 -0.34058315
-0.52154768 0.23063447 -0.33569655
-0.52578962 0.20145284 -0.33145487
-0.5294199 0.17275925 -0.32782459
-0.53246665 0.1444771 -0.32477838
-0.53495175 0.11653369 -0.32229298
-0.5368945 0.088860467 -0.32035094
-0.53830743 0.061391044 -0.31893721
-0.49032542 0.030974058 -0.28921312
-0.54740387 0.006908162 -0.32226357
-0.40271235 -0.69751573 -0.47412467
-0.35366425 -0.69086713 -0.45688039
-0.3520354 -0.78269482 -0.5052042
-0.32735196 -0.83851653 -0.5298872
-0.29956254 -0.89874685 -0.55767608
-0.26814365 -0.96413356 -0.58909369
-0.2246799 -1.0010003 -0.60391557
-0.17216714 -1.001 -0.59790665
-0.12055898 -1.0009999 -0.59351271
-0.069574937 -1.0009999 -0.59067601
-0.018947629 -1.0009998 -0.58935988
0.031582952 -1.0009997 -0.58954746
0.082274832 -1.0009996 -0.59124124
0.13338937 -1.0009995 -0.59446281
0.18519664 -1.0009995 -0.59925413
0.23798133 -1.0009995 -0.60567814
0.29204911 -1.0009992 -0.61382121
0.34773433 -1.0009992 -0.62379646
0.39963785 -0.98675048 -0.62669736
0.42399219 -0.91175777 -0.59191549
0.44530559 -0.84348077 -0.56147629
0.46405262 -0.78084421 -0.53470248
0.36887607 -0.55490017 -0.39224038
0.38256493 -0.51689392 -0.37855154
0.50833166 -0.61890697 -0.47146463
0.51994598 -0.57163119 -0.45487756
0.53030068 -0.52696645 -0.44008914
0.53953719 -0.48457077 -0.42689803
0.54777354 -0.44415116 -0.41513503
0.5551095 -0.40545514 -0.40465814
0.56162912 -0.36826274 -0.39534709
0.56740338 -0.33238086 -0.38710028
0.5724929 -0.29763877 -0.37983173
0.5769484 -0.26388371 -0.37346846
0.58081317 -0.23097822 -0.36794901
0.58412325 -0.19879711 -0.36322168
0.5869087 -0.16722549 -0.35924345
0.58919436 -0.13615684 -0.35597911
0.59100008 -0.10549122 -0.35340029
0.5923413 -0.07513389 -0.35148486
0.59322923 -0.044994079 -0.35021675
0.59367138 -0.014983702 -0.34958529
0.59367138 0.014983702 -0.34958529
0.59322917 0.044994075 -0.35021672
0.59234124 0.075133882 -0.35148484
0.59099996 0.1054912 -0.3534002
0.5891943 0.13615683 -0.35597908
0.58690858 0.16722547 -0.35924339
0.58412302 0.19879703 -0.36322156
0.58081299 0.23097815 -0.36794889
0.57694829 0.26388365 -0.37346837
0.5724926 0.29763865 -0.37983155
0.5674032 0.33238077 -0.38710016
0.56162882 0.36826256 -0.39534688
0.5551092 0.40545493 -0.40465793
0.54777324 0.44415095 -0.41513482
0.53953677 0.48457041 -0.42689773
0.53030038 0.52696615 -0.4400889
0.51994556 0.57163072 -0.4548772
0.50833124 0.6189065 -0.47146428
0.38256493 0.51689392 -0.37855154
0.36887613 0.55490023 -0.39224043
0.46405217 0.7808435 -0.534702
0.42182314 0.79900122 -0.5318678
0.37155733 0.79900122 -0.51871365
0.32359856 0.79900098 -0.50745535
0.27756274 0.79900098 -0.49791646
0.23311459 0.79900098 -0.48995414
0.18995742 0.79900074 -0.48345411
0.1478245 0.79900068 -0.47832638
0.10647177 0.79900062 -0.47450194
0.065672003 0.79900062 -0.47193038
0.025209595 0.79900056 -0.47057831
-0.015124045 0.7990005 -0.4704285
-0.055534881 0.79900056 -0.471479
-0.09623044 0.79900032 -0.47374314
-0.13742416 0.79900026 -0.47725031
-0.17933987 0.79900014 -0.48204646
-0.22221689 0.79899997 -0.48819569
-0.26631579 0.79899997 -0.49578276
-0.3119249 0.79899985 -0.5049153
-0.35203776 0.78270006 -0.5052076
-0.37404117 0.73067254 -0.48320428
-0.3937144 0.68193084 -0.46353111
-0.41134727 0.63604909 -0.44589829
-0.42718145 0.59266728 -0.43006396
-0.44142011 0.5514794 -0.41582528
-0.45423466 0.51222217 -0.4030107
-0.46577054 0.4746682 -0.39147472
-0.47615194 0.43861932 -0.38109347
-0.48548454 0.40390128 -0.37176073
-0.49385956 0.37036052 -0.36338571
-0.50135493 0.33786011 -0.3558903
-0.50803775 0.30627722 -0.34920737
-0.51396579 0.27550122 -0.34327933
-0.51918834 0.24543127 -0.33805668
-0.52374786 0.21597512 -0.33349723
-0.52767974 0.18704729 -0.32956481
-0.53101492 0.15856871 -0.32622966
-0.53377819 0.13046476 -0.32346645
-0.53599012 0.10266494 -0.32125488
-0.53766656 0.075101756 -0.31957862
-0.48548502 0.042987715 -0.28690657
-0.52024263 0.019699652 -0.30646849
-0.4273341 -0.69883424 -0.48219728
-0.37806484 -0.69474548 -0.46560606
-0.33010548 -0.68705994 -0.44870889
-0.34005097 -0.81010079 -0.51718831
-0.31387305 -0.86804295 -0.5433659
-0.28434122 -0.93074912 -0.57289726
-0.25087258 -0.99904644 -0.60636312
-0.19828735 -1.0010002 -0.60070425
-0.14626311 -1.0010002 -0.59551162
-0.095001146 -1.0009999 -0.59190214
-0.044228345 -1.0009999 -0.58982927
0.0063183377 -1.0009998 -0.589266
0.056897249 -1.0009996 -0.59020531
0.10776741 -1.0009996 -0.59265924
0.15919387 -1.0009997 -0.59665942
0.21145317 -1.0009993 -0.60225779
0.26483974 -1.0009993 -0.60952914
0.3196725 -1.0009992 -0.61857259
0.3763032 -1.0009991 -0.62951553
0.41223156 -0.94833046 -0.60871154
0.43499878 -0.87684637 -0.57619625
0.45497602 -0.81150985 -0.54766524
0.47258666 -0.75135905 -0.52251458
0.3759039 -0.53564233 -0.38521257
0.50200176 -0.64364284 -0.48050487
0.51430714 -0.59491462 -0.46293059
0.52527237 -0.54899102 -0.44727063
0.5350517 -0.50550038 -0.43330395
0.54377449 -0.46412683 -0.42084637
0.5515492 -0.42459857 -0.40974283
0.55846727 -0.38668019 -0.3998628
0.56460595 -0.35016581 -0.39109564
0.57003087 -0.31487405 -0.3833479
0.57479745 -0.28064367 -0.37654045
0.57895267 -0.24732982 -0.37060621
0.5825358 -0.21480151 -0.36548874
0.58558011 -0.18293901 -0.36114094
0.58811289 -0.1516318 -0.35752371
0.59015638 -0.12077684 -0.35460532
0.59172803 -0.090276942 -0.35236058
0.59284151 -0.060039554 -0.35077059
0.59350574 -0.029975349 -0.34982184
0.59372652 2.786252e-06 -0.34950647
0.61391044 -2.8809714e-06 -0.32068053
0.61370093 0.030995319 -0.32097968
0.61307067 0.062088247 -0.32187995
0.61201388 0.093371846 -0.32338902
0.61052155 0.12494461 -0.32552019
0.60858047 0.15690891 -0.32829249
0.60617286 0.18937232 -0.33173072
0.60327691 0.22244948 -0.33586666
0.59986526 0.25626373 -0.34073925
0.59590459 0.29094917 -0.34639558
0.59135544 0.32665336 -0.35289228
0.58617085 0.36354026 -0.36029691
0.58029449 0.40179324 -0.36868927
0.57366002 0.44162014 -0.37816429
0.56618875 0.48325801 -0.38883451
0.55778694 0.52697998 -0.40083358
0.54834306 0.57310343 -0.41432101
0.53772318 0.62200063 -0.42948785
0.52576619 0.67411244 -0.44656426
0.51227665 0.72996598 -0.46582949
0.4970156 0.79019827 -0.48762476
0.36802098 0.65641409 -0.39309552
0.34731933 0.79900116 -0.45509079
0.30036655 0.79900104 -0.44588098
0.25516367 0.79900104 -0.43813008
0.21139595 0.79900098 -0.43172458
0.16878258 0.7990008 -0.42657423
0.11847945 0.74499023 -0.39404151
0.084128402 0.78142816 -0.41054335
0.045651805 0.80315727 -0.42021215
0.0051015555 0.80822772 -0.42219198
-0.035149295 0.79551792 -0.41594994
-0.072710723 0.76613206 -0.40199286
-0.1079805 0.73900038 -0.39012122
-0.15827334 0.7990002 -0.42547324
-0.20063856 0.7990002 -0.43032125
-0.24409226 0.79900008 -0.43640503
-0.28890797 0.79899991 -0.4438096
-0.33539122 0.79899991 -0.45264238
-0.38388819 0.79899973 -0.46303678
-0.40961149 0.75271672 -0.44763422
-0.42834854 0.70049322 -0.42889729
-0.44507658 0.65154946 -0.41216922
-0.46004328 0.60545373 -0.3972024
-0.47345513 0.56184167 -0.38379067
-0.48548502 0.52040261 -0.37176076
-0.49627891 0.48086983 -0.36096677
-0.5059604 0.44301262 -0.35128516
-0.51463473 0.40662971 -0.34261081
-0.52239144 0.37154415 -0.33485413
-0.52930707 0.33759916 -0.32793847
-0.535447 0.30465493 -0.32179835
-0.54086733 0.27258575 -0.31637794
-0.54561591 0.24127772 -0.31162959
-0.54973227 0.2106263 -0.30751228
-0.5532521 0.18053612 -0.30399266
-0.55620319 0.15091765 -0.30104187
-0.55860835 0.12168705 -0.29863623
-0.56048673 0.092765182 -0.29675716
-0.56185377 0.064076371 -0.29539075
-0.56271923 0.035547204 -0.29452631
-0.56308806 0.0071060946 -0.29415652
-0.51500344 -0.019501263 -0.26920855
-0.54690677 -0.048426356 -0.28679839
-0.56541497 -0.078977674 -0.29821587
-0.5779143 -0.1106952 -0.30736554
-0.5852657 -0.14304923 -0.31471705
-0.45233202 -0.69942212 -0.43509424
-0.40516368 -0.70176154 -0.42327917
-0.35986412 -0.70297831 -0.41252351
-0.3770667 -0.83834797 -0.48017287
-0.35185048 -0.90126979 -0.50538862
-0.32325003 -0.96981406 -0.53398854
-0.27839693 -1.0010002 -0.54272538
-0.22467984 -1.001 -0.53588909
-0.17216714 -1.001 -0.53055716
-0.12055897 -1.0009999 -0.52665812
-0.069574922 -1.0009997 -0.52414089
-0.018947627 -1.0009997 -0.52297306
0.031582948 -1.0009996 -0.52313954
0.082274832 -1.0009996 -0.52464253
0.13338937 -1.0009995 -0.52750129
0.18519661 -1.0009992 -0.53175277
0.2379813 -1.0009993 -0.53745317
0.29204911 -1.0009992 -0.54467911
0.34773424 -1.000999 -0.55353057
0.40540856 -1.0009991 -0.56413496
0.44899231 -0.96551836 -0.55621099
0.47013703 -0.89051551 -0.52601308
0.37633312 -0.63324183 -0.3847833
0.50488365 -0.75949639 -0.47638926
0.51922601 -0.70154041 -0.4559058
0.53192246 -0.64762944 -0.43777317
0.54318893 -0.59718454 -0.42168286
0.55320263 -0.5497244 -0.40738168
0.56211025 -0.50484419 -0.39465997
0.57003409 -0.4622007 -0.3833434
0.57707632 -0.42149982 -0.37328595
0.58332276 -0.38248736 -0.36436501
0.58884567 -0.34494159 -0.35647726
0.59370619 -0.30866757 -0.3495357
0.59795564 -0.27349198 -0.34346676
0.60163736 -0.2392596 -0.33820871
0.60478747 -0.20582984 -0.33370972
0.60743618 -0.17307432 -0.32992697
0.60960805 -0.14087424 -0.32682511
0.61132288 -0.10911875 -0.32437605
0.61259598 -0.077703044 -0.32255784
0.61343861 -0.046526879 -0.32135442
0.61385804 -0.015493196 -0.32075527
0.61385804 0.015493195 -0.32075527
0.61343861 0.046526879 -0.32135442
0.61259592 0.077703036 -0.32255781
0.61132276 0.10911874 -0.32437602
0.60960788 0.14087421 -0.32682505
0.60743606 0.17307428 -0.32992688
0.60478729 0.20582978 -0.33370963
0.60163718 0.23925951 -0.33820859
0.59795541 0.27349186 -0.34346661
0.59370595 0.30866742 -0.34953555
0.58884531 0.34494141 -0.35647705
0.58332247 0.38248715 -0.36436483
0.57707602 0.42149964 -0.37328577
0.57003373 0.4622004 -0.38334316
0.56210983 0.50484383 -0.3946597
0.55320215 0.54972392 -0.40738136
0.54318845 0.59718406 -0.42168251
0.53192198 0.64762884 -0.43777275
0.51922554 0.70153981 -0.45590541
0.50488305 0.75949544 -0.47638866
0.37633312 0.63324183 -0.3847833
0.47013649 0.89051449 -0.52601248
0.3715573 0.79900116 -0.46028462
0.32359859 0.7990011 -0.45029455
0.27756277 0.7990011 -0.44183016
0.2331146 0.79900098 -0.43476471
0.18995747 0.79900098 -0.42899692
0.13672382 0.73900074 -0.39257342
0.10168187 0.76305562 -0.4021109
0.065200798 0.79326773 -0.41576642
0.025489304 0.8078658 -0.42220449
-0.015235127 0.804869 -0.42050442
-0.054524221 0.78445977 -0.4107568
-0.090102881 0.74812335 -0.39361167
-0.13742419 0.79900038 -0.4234919
-0.17933992 0.79900026 -0.42774779
-0.22221693 0.79900014 -0.43320438
-0.26631579 0.79900002 -0.43993676
-0.31192493 0.79899997 -0.44804063
-0.35936892 0.79899973 -0.45763576
-0.39940053 0.78021091 -0.45784536
-0.41925025 0.72616011 -0.43799555
-0.43694872 0.67563552 -0.42029715
-0.45276773 0.62816542 -0.40447801
-0.46693331 0.58335376 -0.39031243
-0.47963417 0.54086417 -0.37761152
-0.49102929 0.50040942 -0.36621648
-0.50125265 0.46174148 -0.355993
-0.51041842 0.42464513 -0.34682724
-0.51862347 0.38893175 -0.33862212
-0.52595067 0.35443503 -0.33129486
-0.53247082 0.32100704 -0.32477459
-0.53824455 0.28851539 -0.31900087
-0.54332316 0.25684032 -0.31392187
-0.54775143 0.22587332 -0.30949405
-0.55156559 0.19551413 -0.30567956
-0.55479753 0.16567054 -0.30244753
-0.55747312 0.13625623 -0.29977205
-0.55961293 0.10718971 -0.29763189
-0.56123388 0.078393668 -0.29601067
-0.56234854 0.049793664 -0.2948961
-0.5629648 0.021317381 -0.29427946
-0.5073517 -0.0064027095 -0.26503992
-0.53025496 -0.033496425 -0.2775346
-0.55826145 -0.063666686 -0.29350212
-0.57324404 -0.094876617 -0.30351168
-0.58133453 -0.12663771 -0.31078583
-0.58974451 -0.16001859 -0.31919593
-0.42856017 -0.70083928 -0.42910919
-0.38113436 -0.70038611 -0.41651365
-0.38856366 -0.80873096 -0.46867621
-0.3648456 -0.86916888 -0.49239385
-0.33800632 -0.9347856 -0.51923257
-0.30580273 -1.0010003 -0.54673529
-0.25136319 -1.0010002 -0.53911334
-0.19828734 -1.001 -0.53303957
-0.14626308 -1.0009999 -0.52843183
-0.095001146 -1.0009999 -0.52522904
-0.044228341 -1.0009998 -0.52338958
0.0063183368 -1.0009997 -0.52288979
0.056897245 -1.0009996 -0.5237233
0.10776741 -1.0009995 -0.52590078
0.15919383 -1.0009993 -0.52945024
0.21145317 -1.0009993 -0.53441817
0.26483965 -1.0009991 -0.54087031
0.31967247 -1.0009991 -0.54889518
0.37630317 -1.000999 -0.55860555
0.4351261 -1.0009989 -0.57014358
0.45992783 -0.9270969 -0.54059356
0.36802095 -0.65641397 -0.39309546
0.49701613 -0.7901991 -0.4876253
0.51227713 -0.72996664 -0.46582991
0.52576667 -0.67411304 -0.44656467
0.5377236 -0.62200111 -0.42948818
0.54834348 -0.5731039 -0.41432133
0.55778736 -0.52698034 -0.40083385
0.56618911 -0.48325834 -0.38883474
0.57366037 -0.44162041 -0.37816453
0.58029479 -0.40179345 -0.36868945
0.58617109 -0.36354041 -0.36029705
0.59135574 -0.32665351 -0.35289243
0.59590477 -0.29094929 -0.34639567
0.5998655 -0.25626382 -0.34073937
0.60327709 -0.22244956 -0.33586678
0.6061731 -0.18937239 -0.33173084
0.60858059 -0.15690894 -0.32829258
0.61052167 -0.12494464 -0.32552028
0.612014 -0.093371861 -0.32338905
0.61307073 -0.062088251 -0.32187998
0.61370099 -0.030995321 -0.32097971
0.61391044 2.8809714e-06 -0.32068053
0.63436276 -2.9769506e-06 -0.29147136
0.63416594 0.032028917 -0.29175234
0.63357383 0.064164691 -0.29259795
0.63258106 0.096509673 -0.29401588
0.63117832 0.12917207 -0.29601905
0.62935287 0.16226462 -0.29862612
0.62708735 0.19590613 -0.30186158
0.62435997 0.23022355 -0.30575663
0.62114394 0.26535404 -0.3103497
0.61740643 0.30144739 -0.31568751
0.61310816 0.33866912 -0.3218261
0.6082021 0.37720394 -0.3288326
0.60263252 0.41725999 -0.33678693
0.59633255 0.45907411 -0.34578416
0.58922315 0.50291854 -0.35593769
0.58120918 0.54910856 -0.36738279
0.57217717 0.59801382 -0.38028201
0.56198984 0.65007061 -0.39483097
0.55048102 0.70580059 -0.4112674
0.53744733 0.76583278 -0.42988169
0.50255257 0.7990014 -0.43369845
0.44796309 0.79900134 -0.42088008
0.3742182 0.75432819 -0.38689822
0.30036658 0.79900116 -0.39220184
0.25516364 0.79900086 -0.38538393
0.21139602 0.79900122 -0.3797498
0.16120005 0.76310581 -0.3583627
0.13142765 0.82640755 -0.38448226
-0.11722264 0.80225205 -0.37252581
-0.14638802 0.73900038 -0.34614706
-0.20063858 0.79900026 -0.37851533
-0.24409226 0.79900008 -0.38386664
-0.28890809 0.7990002 -0.39037991
-0.33539122 0.79899991 -0.39814919
-0.38388827 0.79899991 -0.40729234
-0.4347977 0.79899979 -0.4179545
-0.45580319 0.74539071 -0.40144309
-0.47242248 0.69158119 -0.38482386
-0.48722169 0.64122272 -0.37002447
-0.5004276 0.59384954 -0.35681859
-0.51222807 0.54906905 -0.34501797
-0.52278054 0.50654858 -0.33446559
-0.53221679 0.46600235 -0.32502925
-0.5406484 0.42718396 -0.31659752
-0.54816979 0.38987866 -0.30907604
-0.55486119 0.35389796 -0.30238461
-0.56079078 0.31907484 -0.29645503
-0.56601685 0.28526059 -0.29122955
-0.57058716 0.25232029 -0.28665814
-0.57454562 0.22013336 -0.28270036
-0.57792497 0.18858734 -0.27932006
-0.58075607 0.15757972 -0.27648902
-0.58306247 0.12701412 -0.27418318
-0.58486199 0.096799485 -0.27238294
-0.58617008 0.066849522 -0.27107403
-0.58699822 0.037080918 -0.27024633
-0.58735216 0.0074123042 -0.26989284
-0.5872342 -0.022236375 -0.27001053
-0.58664405 -0.051944934 -0.27060062
-0.58557683 -0.081793904 -0.27166769
-0.52621537 -0.10079265 -0.24617609
-0.52436739 -0.12816462 -0.24802391
-0.52205551 -0.15589331 -0.25033572
-0.52788383 -0.18711963 -0.25733462
-0.53787446 -0.22180042 -0.26732546
-0.55014545 -0.26006535 -0.27959636
-0.56519568 -0.30296203 -0.29464683
-0.58371913 -0.35190275 -0.31317046
-0.49217394 -0.68283725 -0.38674858
-0.44745606 -0.69188261 -0.37858817
-0.4031027 -0.69819188 -0.3704271
-0.42684326 -0.83381903 -0.430397
-0.40433276 -0.89896971 -0.45290697
-0.37873128 -0.97012532 -0.47850791
-0.33364475 -1.0010003 -0.48480633
-0.2783969 -1.001 -0.47738716
-0.22467986 -1.001 -0.47137395
-0.17216626 -1.0009949 -0.46668157
-0.12055895 -1.0009998 -0.46325421
-0.069574922 -1.0009997 -0.46104008
-0.018947624 -1.0009995 -0.46001273
0.031582944 -1.0009995 -0.46015921
0.082274817 -1.0009993 -0.46148124
0.13338935 -1.0009993 -0.46399587
0.18519659 -1.0009991 -0.4677355
0.23798123 -1.000999 -0.47274956
0.29204905 -1.000999 -0.47910556
0.34773424 -1.000999 -0.48689154
0.4054085 -1.0009989 -0.49621916
0.36511946 -0.7851572 -0.39785635
0.49638823 -0.94023955 -0.48852208
0.51447153 -0.8656823 -0.46269602
0.53028166 -0.79770261 -0.44011673
0.54416859 -0.735241 -0.42028391
0.55641186 -0.67744583 -0.40279844
0.56723714 -0.62362325 -0.38733822
0.576828 -0.57320124 -0.37364075
0.58533543 -0.52570325 -0.36149064
0.5928843 -0.48072833 -0.35070968
0.5995782 -0.43793532 -0.3411496
0.60550386 -0.39703164 -0.3326866
0.61073411 -0.35776371 -0.32521695
0.61532998 -0.31990975 -0.31865346
0.61934251 -0.28327385 -0.31292284
0.62281489 -0.2476815 -0.30796376
0.62578285 -0.21297531 -0.30372488
0.62827623 -0.17901218 -0.30016387
0.63031936 -0.14566042 -0.29724598
0.63193154 -0.11279732 -0.29494348
0.63312799 -0.080307364 -0.29323485
0.63391954 -0.048080273 -0.29210427
0.63431358 -0.016009472 -0.29154158
0.63431358 0.016009472 -0.29154158
0.63391948 0.048080269 -0.29210424
0.63312787 0.080307357 -0.2932348
0.63193142 0.1127973 -0.29494345
0.63031924 0.14566039 -0.29724595
0.62827605 0.17901213 -0.30016378
0.62578267 0.21297522 -0.30372477
0.62281466 0.24768141 -0.30796364
0.61934227 0.28327376 -0.31292272
0.61532968 0.3199096 -0.31865332
0.61073381 0.35776353 -0.3252168
0.60550362 0.39703146 -0.33268645
0.59957784 0.43793505 -0.34114939
0.59288388 0.48072803 -0.35070944
0.58533502 0.52570289 -0.36149037
0.57682747 0.5732007 -0.37364042
0.56723666 0.62362278 -0.38733789
0.55641139 0.67744529 -0.40279809
0.54416794 0.73524016 -0.42028344
0.53028107 0.79770166 -0.44011623
0.47484335 0.7990014 -0.42705595
0.42182323 0.79900134 -0.41513869
0.36511669 0.78515118 -0.39785331
0.32359865 0.79900122 -0.3960841
0.27756286 0.79900134 -0.38863876
0.23311454 0.7990008 -0.3824237
0.17569286 0.73900104 -0.34901375
0.14724906 0.79589039 -0.37189463
-0.10043263 0.83389109 -0.38591772
-0.13250786 0.77041626 -0.3591817
-0.17933996 0.79900056 -0.37625176
-0.22221695 0.7990002 -0.38105136
-0.26631585 0.7990002 -0.38697326
-0.31192502 0.79900014 -0.39410153
-0.35936904 0.79900002 -0.40254158
-0.40901878 0.79899973 -0.41242415
-0.44672912 0.77375472 -0.41051713
-0.46435773 0.71801698 -0.39288849
-0.48003575 0.66599685 -0.37721044
-0.4940125 0.61718464 -0.36323369
-0.5064941 0.57115304 -0.35075197
-0.51765245 0.52754122 -0.33959356
-0.52763152 0.48604104 -0.32961437
-0.53655261 0.44638762 -0.32069325
-0.54451829 0.40835106 -0.31272763
-0.55161536 0.37173027 -0.30563045
-0.55791795 0.33634815 -0.29932788
-0.56348878 0.30204704 -0.29375696
-0.56838083 0.26868561 -0.28886405
-0.57264137 0.23613706 -0.28460473
-0.57630569 0.20428377 -0.28093946
-0.57940805 0.1730196 -0.27783737
-0.58197361 0.14224458 -0.27527145
-0.58402443 0.11186555 -0.27322054
-0.58557725 0.081793964 -0.2716679
-0.58664471 0.05194499 -0.27060089
-0.5872342 0.022236373 -0.2700105
-0.58735216 -0.0074123042 -0.26989284
-0.58699828 -0.037080921 -0.27024636
-0.58617038 -0.066849552 -0.27107418
-0.52697009 -0.087217897 -0.24542141
-0.52534819 -0.11444166 -0.24704322
-0.52327037 -0.14198181 -0.24912094
-0.52362549 -0.17086843 -0.25307629
-0.53262055 -0.20407006 -0.26207149
-0.54369867 -0.24042989 -0.27314958
-0.55728668 -0.28086075 -0.28673765
-0.57397175 -0.32657447 -0.30342299
-0.5132618 -0.6754936 -0.38980085
-0.46955249 -0.68737978 -0.38248605
-0.42581943 -0.69635725 -0.37503529
-0.43708611 -0.80320507 -0.42015427
-0.41594088 -0.86571211 -0.44129905
-0.39194921 -0.93373752 -0.46529022
-0.36194864 -1.0010002 -0.48907417
-0.30580267 -1.001 -0.48091426
-0.25136313 -1.0009999 -0.47420987
-0.19828729 -1.0009998 -0.46886736
-0.14626308 -1.0009999 -0.46481439
-0.095001131 -1.0009997 -0.46199715
-0.044228334 -1.0009996 -0.46037912
0.0063183359 -1.0009995 -0.45993951
0.05689723 -1.0009993 -0.46067265
0.1077674 -1.0009995 -0.4625881
0.15919384 -1.0009993 -0.46571028
0.21145311 -1.0009991 -0.47007993
0.26483968 -1.0009991 -0.47575548
0.31967244 -1.0009991 -0.48281419
0.37630314 -1.0009989 -0.49135551
0.46399796 -1.067418 -0.5347808
0.3742182 -0.75432819 -0.38689822
0.505741 -0.90205592 -0.47516483
0.5226385 -0.83093572 -0.45103243
0.53744781 -0.7658335 -0.42988208
0.55048156 -0.70580131 -0.41126785
0.56199032 -0.65007114 -0.3948313
0.57217759 -0.59801424 -0.38028228
0.5812096 -0.54910892 -0.36738306
0.5892235 -0.50291884 -0.3559379
0.59633297 -0.45907441 -0.3457844
0.60263282 -0.4172602 -0.3367871
0.60820246 -0.37720415 -0.32883281
0.6131084 -0.3386693 -0.32182625
0.61740661 -0.30144751 -0.3156876
0.62114412 -0.26535413 -0.31034982
0.6243602 -0.23022363 -0.30575672
0.62708753 -0.19590619 -0.30186167
0.62935305 -0.16226466 -0.29862621
0.63117844 -0.1291721 -0.29601911
0.63258111 -0.096509688 -0.29401591
0.63357389 -0.064164698 -0.29259798
0.634166 -0.032028917 -0.29175234
0.63436276 2.9769506e-06 -0.29147136
0.65519637 -3.074719e-06 -0.26171753
0.65501386 0.033081852 -0.26197812
0.65446466 0.066280387 -0.26276249
0.65354353 0.099707812 -0.26407802
0.65224159 0.13348271 -0.26593727
0.65054637 0.16772889 -0.26835826
0.64844114 0.20257719 -0.27136478
0.64590472 0.23816785 -0.27498716
0.64291096 0.27465296 -0.27926278
0.6394279 0.31219935 -0.28423724
0.63541692 0.35099208 -0.28996536
0.63083225 0.39123902 -0.29651314
0.6256184 0.43317533 -0.30395922
0.61970967 0.47707048 -0.31239781
0.61302716 0.52323592 -0.32194155
0.60547602 0.57203513 -0.33272576
0.59694201 0.6238969 -0.34491378
0.58728623 0.67933172 -0.35870358
0.57633936 0.73895496 -0.37433752
0.56072462 0.79900169 -0.38991132
0.50255269 0.79900157 -0.37704319
0.44796315 0.79900146 -0.36589929
0.39638034 0.79900146 -0.35627642
0.34731945 0.79900146 -0.34801021
0.3003667 0.7990014 -0.34096745
0.25516373 0.79900122 -0.33504021
0.19747607 0.74638885 -0.30840287
0.17590638 0.83272415 -0.33997136
-0.1609095 0.81230819 -0.33078054
-0.18623868 0.74165571 -0.30545133
-0.2440923 0.79900026 -0.33372104
-0.28890806 0.79900014 -0.33938339
-0.33539128 0.79900002 -0.34613779
-0.38388836 0.79900008 -0.35408658
-0.43479767 0.79899979 -0.36335582
-0.48550397 0.79396141 -0.37174281
-0.50185239 0.73466372 -0.35539439
-0.5163365 0.67954016 -0.34091005
-0.529203 0.6279968 -0.32804367
-0.54065388 0.57953942 -0.31659263
-0.55085683 0.53375316 -0.30638954
-0.55995148 0.49028656 -0.29729488
-0.56805456 0.44883847 -0.28919169
-0.57526451 0.40914941 -0.28198171
-0.58166414 0.37099323 -0.27558196
-0.58732384 0.33417147 -0.26992229
-0.59230202 0.29850775 -0.264943
-0.59665173 0.26384637 -0.26059514
-0.60041052 0.23004334 -0.25683445
-0.60361832 0.19697152 -0.25362742
-0.60630202 0.16451125 -0.25094366
-0.60848641 0.13255246 -0.24875954
-0.61018968 0.10099143 -0.24705547
-0.61142802 0.069730051 -0.24581747
-0.61221081 0.038673609 -0.24503444
-0.61254507 0.0077302353 -0.2447
-0.61243361 -0.023190582 -0.24481133
-0.61187553 -0.054179076 -0.24536934
-0.61086601 -0.085326321 -0.24637872
-0.60939658 -0.1167254 -0.24784806
-0.60745454 -0.14847256 -0.24978985
-0.60502368 -0.1806688 -0.25222126
-0.602081 -0.21342039 -0.25516313
-0.59860128 -0.24684203 -0.2586427
-0.59455186 -0.28105718 -0.26269203
-0.58989382 -0.31620097 -0.26734981
-0.52671748 -0.31753856 -0.24567316
-0.52197886 -0.35175845 -0.25142956
-0.54033607 -0.4052147 -0.26978692
-0.56319028 -0.46854895 -0.29264143
-0.58013791 -0.53440863 -0.315072
-0.57073694 -0.58163977 -0.32550693
-0.54603064 -0.61573684 -0.32873496
-0.5139339 -0.64207304 -0.32851756
-0.47792313 -0.66306585 -0.32649106
-0.44503632 -0.68814105 -0.32735217
-0.47653717 -0.8253836 -0.38070357
-0.45680374 -0.89234549 -0.40043643
-0.43430766 -0.96561414 -0.42293215
-0.39078468 -1.0010003 -0.42923841
-0.33364472 -1.001 -0.42147455
-0.2783969 -1.001 -0.41502461
-0.2246798 -1.0009999 -0.40979686
-0.17216708 -1.0009997 -0.40571946
-0.12055895 -1.0009998 -0.40273792
-0.069574907 -1.0009996 -0.40081292
-0.018947622 -1.0009995 -0.39991987
0.03158294 -1.0009995 -0.40004718
0.082274817 -1.0009993 -0.40119654
0.13338934 -1.0009992 -0.40338263
0.18519658 -1.0009991 -0.40663379
0.23798124 -1.0009991 -0.41099289
0.29204902 -1.0009989 -0.41651854
0.34773415 -1.0009986 -0.4232873
0.36873949 -0.91045898 -0.39237693
0.46549162 -1.0009986 -0.4409672
0.52433223 -0.99316996 -0.44861358
0.541821 -0.91170228 -0.42363653
0.55702657 -0.83793491 -0.40192065
0.57031775 -0.77057183 -0.38293874
0.58198583 -0.70858288 -0.36627474
0.59226382 -0.65113771 -0.35159609
0.60133958 -0.59755868 -0.33863422
0.60936654 -0.54728615 -0.32717037
0.6164704 -0.49985266 -0.31702474
0.62275535 -0.45486405 -0.30804887
0.62830776 -0.41198424 -0.30011931
0.63319945 -0.37092373 -0.29313296
0.63749093 -0.33143124 -0.28700387
0.64123273 -0.29328597 -0.28166002
0.64446682 -0.25629205 -0.27704117
0.64722836 -0.22027393 -0.27309728
0.64954615 -0.18507253 -0.26978692
0.65144408 -0.15054213 -0.26707649
0.65294075 -0.11654738 -0.26493889
0.65405101 -0.082961291 -0.26335335
0.65478534 -0.049662862 -0.26230457
0.65515077 -0.016535385 -0.26178268
0.65515077 0.016535385 -0.26178265
0.65478528 0.049662858 -0.26230454
0.65405095 0.082961284 -0.26335332
0.65294063 0.11654737 -0.26493883
0.6514439 0.15054208 -0.26707643
0.64954603 0.1850725 -0.26978689
0.64722812 0.22027385 -0.27309719
0.64446664 0.25629199 -0.27704111
0.64123249 0.29328585 -0.2816599
0.63749069 0.33143112 -0.28700376
0.6331991 0.37092352 -0.29313281
0.62830734 0.41198397 -0.3001191
0.62275493 0.45486379 -0.3080487
0.61647004 0.49985239 -0.31702456
0.60936606 0.54728574 -0.3271701
0.60133916 0.59755826 -0.33863398
0.59226322 0.65113711 -0.35159576
0.58198524 0.70858216 -0.36627436
0.57031709 0.77057099 -0.38293833
0.53114516 0.79900151 -0.383246
0.47484341 0.79900151 -0.37126839
0.42182326 0.7990014 -0.36090788
0.37155744 0.79900146 -0.35198194
0.32359865 0.79900128 -0.34434244
0.27756283 0.79900128 -0.33786967
0.23311466 0.79900122 -0.33246669
0.18762624 0.7891953 -0.32402992
-0.17411642 0.7757284 -0.31757355
-0.22221698 0.79900026 -0.3312735
-0.26631582 0.79900008 -0.33642176
-0.31192499 0.79900008 -0.34261882
-0.35936901 0.79899997 -0.3499563
-0.4090189 0.79899997 -0.35854802
-0.46130443 0.79899985 -0.36853421
-0.49393013 0.76374352 -0.36331663
-0.50931227 0.70661479 -0.34793442
-0.52295965 0.65334916 -0.33428699
-0.53509516 0.60340536 -0.3221513
-0.54590297 0.5563314 -0.31134346
-0.55553585 0.51174581 -0.30171064
-0.56412119 0.46932343 -0.29312512
-0.57176632 0.4287852 -0.28547987
-0.57856154 0.38988918 -0.27868462
-0.5845831 0.35242361 -0.27266303
-0.58989507 0.31620166 -0.26735038
-0.59455341 0.28105792 -0.26269272
-0.59860241 0.24684249 -0.25864318
-0.6020816 0.21342061 -0.2551634
-0.60502392 0.18066888 -0.25222135
-0.60745502 0.14847268 -0.24979004
-0.60939687 0.11672545 -0.24784817
-0.61086667 0.085326411 -0.24637899
-0.61187547 0.054179072 -0.24536932
-0.61243373 0.023190586 -0.24481137
-0.61254501 -0.0077302349 -0.24469998
-0.61221057 -0.038673595 -0.24503435
-0.61142755 -0.069729999 -0.24581727
-0.6101892 -0.10099135 -0.24705529
-0.6084854 -0.13255224 -0.24875911
-0.60630107 -0.16451098 -0.25094327
-0.60361725 -0.19697118 -0.25362697
-0.60040992 -0.2300431 -0.25683418
-0.59664971 -0.26384547 -0.26059425
-0.59230119 -0.29850733 -0.26494262
-0.58732212 -0.33417046 -0.26992148
-0.52408743 -0.33427 -0.24830313
-0.53067297 -0.37743428 -0.26012397
-0.55111885 -0.43545705 -0.28056988
-0.57546288 -0.5038681 -0.30553031
-0.57734865 -0.55942237 -0.3211244
-0.55923516 -0.59945709 -0.32747334
-0.53122574 -0.6303972 -0.32929754
-0.49680132 -0.65383023 -0.32801199
-0.45830989 -0.67092168 -0.32455909
-0.48550057 -0.79395586 -0.37174019
-0.46698549 -0.85814923 -0.39025483
-0.44592905 -0.92812753 -0.41131097
-0.42018369 -1.0010004 -0.43364713
-0.36194861 -1.001 -0.42518491
-0.30580267 -1.001 -0.41809094
-0.2513631 -1.0009998 -0.41226235
-0.19828729 -1.0009998 -0.40761778
-0.14626305 -1.0009997 -0.40409422
-0.095001109 -1.0009995 -0.40164497
-0.044228327 -1.0009995 -0.40023836
0.0063183354 -1.0009995 -0.39985618
0.056897234 -1.0009995 -0.40049362
0.10776738 -1.0009992 -0.40215874
0.15919378 -1.0009991 -0.40487301
0.21145311 -1.0009991 -0.40867198
0.26483962 -1.000999 -0.41360602
0.31967238 -1.0009989 -0.41974264
0.46714392 -1.2426432 -0.53028804
0.38018015 -0.87459677 -0.38093624
0.49659005 -1.0009986 -0.44634739
0.53339046 -0.95137239 -0.43567687
0.54968542 -0.87393731 -0.41240484
0.5638929 -0.80351627 -0.3921144
0.5763399 -0.73895568 -0.37433788
0.58728683 -0.67933244 -0.35870394
0.59694248 -0.62389737 -0.34491405
0.60547656 -0.57203561 -0.33272606
0.61302763 -0.52323633 -0.32194179
0.61971009 -0.47707084 -0.31239802
0.6256187 -0.43317553 -0.3039594
0.63083261 -0.39123926 -0.29651332
0.63541722 -0.35099223 -0.28996548
0.6394282 -0.31219947 -0.28423733
0.6429112 -0.27465308 -0.2792629
0.64590496 -0.23816794 -0.27498725
0.64844131 -0.20257726 -0.27136487
0.65054655 -0.16772893 -0.26835832
0.65224159 -0.13348272 -0.26593727
0.65354359 -0.099707827 -0.26407805
0.65446472 -0.066280395 -0.26276252
0.65501392 -0.033081856 -0.26197815
0.65519637 3.074719e-06 -0.26171753
0.67653257 -3.1748459e-06 -0.23124591
0.67636609 0.03416026 -0.23148367
0.67586499 0.068447687 -0.2321994
0.67502415 0.10298501 -0.23340011
0.6738354 0.13790195 -0.23509778
0.67228663 0.17333412 -0.23730952
0.67036211 0.20942545 -0.24005812
0.66804135 0.24633043 -0.24337238
0.66529953 0.28421739 -0.24728821
0.66210586 0.32327178 -0.25184932
0.65842324 0.36370033 -0.25710851
0.65420753 0.40573624 -0.26312953
0.6494047 0.44964483 -0.26998848
0.64395106 0.49573222 -0.27777719
0.63776928 0.54435402 -0.28660578
0.63076615 0.59592843 -0.29660732
