ply
format ascii 1.0
comment Written with hapPLY (https://github.com/nmwsharp/happly)
element vertex 475
property double x
property double y
property double z
property double nx
property double ny
property double nz
end_header
919.08731702763509 -53.37088090017869 9.0000000000011369 5.4807774908492102e-36 4.3622021788916461e-54 1
919.08731702763509 -18.37088090017869 1.0000000000011369 -5.4807774908492102e-36 -4.3622021788916461e-54 -1
919.08731702763509 -18.37088090017869 9.0000000000011369 5.4807774908492102e-36 4.3622021788916461e-54 1
919.08731702763509 5.9484260615893163 -150.00364245320884 -2.9151152268471099e-16 -1 1.6020719940324345e-51
919.08731702763509 5.9484260615893163 -115.00364245320884 -2.9151152268471099e-16 -1 1.6020719940324345e-51
919.08731702763509 5.9484260615893163 -80.00364245320884 -2.9151152268471099e-16 -1 1.6020719940324345e-51
919.08731702763509 5.9484260615893163 -45.00364245320884 -2.9151152268471099e-16 -1 1.6020719940324345e-51
919.08731702763509 5.9484260615893163 -10.00364245320884 -2.9151152268471099e-16 -1 1.6020719940324345e-51
919.08731702763509 12.948426061589316 -115.00364245320884 2.9151152268471099e-16 1 -1.6020719940324345e-51
919.08731702763509 12.948426061589316 -80.00364245320884 2.9151152268471099e-16 1 -1.6020719940324345e-51
919.08731702763509 12.948426061589316 -45.00364245320884 2.9151152268471099e-16 1 -1.6020719940324345e-51
919.08731702763509 12.948426061589316 -10.00364245320884 2.9151152268471099e-16 1 -1.6020719940324345e-51
919.08731702763509 16.62911909982131 -159 -5.4807774908492102e-36 -4.3622021788919765e-54 -1
919.08731702763509 16.62911909982131 -138.95924160885511 1.4575576134241086e-16 0.50000000000018996 0.86602540378432902
919.08731702763509 16.62911909982131 1.0000000000011369 -5.4807774908492102e-36 -4.3622021788916461e-54 -1
919.08731702763509 16.62911909982131 9.0000000000011369 5.4807774908492102e-36 4.3622021788916461e-54 1
919.08731702763509 34.146679754104866 -150.00364245320884 2.5255847486789788e-16 0.86637561541969166 0.49939292446544598
919.08731702763509 51.62911909982131 1.0000000000011369 -5.4807774908492102e-36 -4.3622021788916461e-54 -1
919.08731702763509 51.62911909982131 9.0000000000011369 5.4807774908492102e-36 4.3622021788916461e-54 1
919.08731702763509 86.62911909982131 1.0000000000011369 -5.4807774908492102e-36 -4.3622021788916461e-54 -1
919.08731702763509 86.62911909982131 9.0000000000011369 5.4807774908492102e-36 4.3622021788916461e-54 1
919.08731702763509 121.62911909982131 1.0000000000011369 -5.4807774908492102e-36 -4.3622021788916461e-54 -1
919.08731702763509 121.62911909982131 9.0000000000011369 5.4807774908492102e-36 4.3622021788916461e-54 1
919.08731702763509 156.62911909982131 1.0000000000011369 -5.4807774908492102e-36 -4.3622021788916461e-54 -1
919.08731702763509 156.62911909982131 9.0000000000011369 5.4807774908492102e-36 4.3622021788916461e-54 1
919.08731702763509 191.62911909982131 1.0000000000011369 -5.4807774908492102e-36 -4.3622021788916461e-54 -1
919.08731702763509 191.62911909982131 9.0000000000011369 5.4807774908492102e-36 4.3622021788916461e-54 1
919.08731702763509 226.62911909982131 1.0000000000011369 -5.4807774908492102e-36 -4.3622021788916461e-54 -1
919.08731702763509 226.62911909982131 9.0000000000011369 5.4807774908492102e-36 4.3622021788916461e-54 1
919.08731702763509 261.62911909982131 1.0000000000011369 -5.4807774908492102e-36 -4.3622021788916461e-54 -1
919.08731702763509 261.62911909982131 9.0000000000011369 5.4807774908492102e-36 4.3622021788916461e-54 1
919.08731702763509 296.62911909982131 1.0000000000011369 -5.4807774908492102e-36 -4.3622021788916461e-54 -1
919.08731702763509 296.62911909982131 9.0000000000011369 5.4807774908492102e-36 4.3622021788916461e-54 1
919.08731702763509 321.36028002709054 -1830.0036424532088 -0.49322325471231315 -0.86990276526229793 -9.1171030855889119e-17
919.08731702763509 321.36028002709054 -1795.0036424532088 -0.49322325471231315 -0.86990276526229793 -9.1171030855889119e-17
919.08731702763509 321.36028002709054 -1760.0036424532088 -0.49322325471231315 -0.86990276526229793 -9.1171030855889119e-17
919.08731702763509 331.62911909982131 -1839 1.8484738905724802e-16 4.4298132019484907e-32 -1
919.08731702763509 331.62911909982131 -1739 -1.8484738905724802e-16 -4.4298132019484907e-32 1
919.08731702763509 331.62911909982131 1.0000000000011369 -5.4807774908492102e-36 -4.3622021788916461e-54 -1
919.08731702763509 331.62911909982131 9.0000000000011369 5.4807774908492102e-36 4.3622021788916461e-54 1
919.08731702763509 332.17098014503563 1739.9963575467912 -0.44998199039037046 -0.89303762984788082 -8.3434035141363827e-34
919.08731702763509 332.17098014503563 1774.9963575467912 -0.44998199039037046 -0.89303762984788082 -8.3434035141363827e-34
919.08731702763509 332.17098014503563 1809.9963575467912 -0.44998199039037046 -0.89303762984788082 -8.3434035141363827e-34
919.08731702763509 332.76913562690447 -1830.0036424532088 0.46973643305934615 0.88280670786796944 8.6829553196084951e-17
919.08731702763509 332.76913562690447 -1795.0036424532088 0.46973643305934615 0.88280670786796944 8.6829553196084951e-17
919.08731702763509 332.76913562690447 -1760.0036424532088 0.46973643305934615 0.88280670786796944 8.6829553196084951e-17
919.08731702763509 343.30182228526701 1739.9963575467912 0.42855427656225753 0.90351603861813101 7.9460995355146564e-34
919.08731702763509 343.30182228526701 1774.9963575467912 0.42855427656225753 0.90351603861813101 7.9460995355146564e-34
919.08731702763509 343.30182228526701 1809.9963575467912 0.42855427656225753 0.90351603861813101 7.9460995355146564e-34
919.08731702763509 366.62911909982131 -1807 -0 0 -1
919.08731702763509 366.62911909982131 -1799 0 -0 1
919.08731702763509 366.62911909982131 1.0000000000011369 -5.4807774908492102e-36 -4.3622021788916461e-54 -1
919.08731702763509 366.62911909982131 9.0000000000011369 5.4807774908492102e-36 4.3622021788916461e-54 1
919.08731702763509 366.62911909982131 1799.0000000000002 -0 0 -1
919.08731702763509 366.62911909982131 1807.0000000000002 0 -0 1
919.08731702763509 401.62911909982131 -1807 -0 0 -1
919.08731702763509 401.62911909982131 -1799 0 -0 1
919.08731702763509 401.62911909982131 1.0000000000011369 -5.4807774908492102e-36 -4.3622021788916461e-54 -1
919.08731702763509 401.62911909982131 9.0000000000011369 5.4807774908492102e-36 4.3622021788916461e-54 1
919.08731702763509 401.62911909982131 1799.0000000000002 -0 0 -1
919.08731702763509 401.62911909982131 1807.0000000000002 0 -0 1
919.08731702763509 436.62911909982131 -1807 -0 0 -1
919.08731702763509 436.62911909982131 -1799 0 -0 1
919.08731702763509 436.62911909982131 1.0000000000011369 -5.4807774908492102e-36 -4.3622021788916461e-54 -1
919.08731702763509 436.62911909982131 9.0000000000011369 5.4807774908492102e-36 4.3622021788916461e-54 1
919.08731702763509 436.62911909982131 1799.0000000000002 -0 0 -1
919.08731702763509 436.62911909982131 1807.0000000000002 0 -0 1
919.08731702763509 471.62911909982131 -1807 -0 0 -1
919.08731702763509 471.62911909982131 -1799 0 -0 1
919.08731702763509 471.62911909982131 1.0000000000011369 -5.4807774908492102e-36 -4.3622021788916461e-54 -1
919.08731702763509 471.62911909982131 9.0000000000011369 5.4807774908492102e-36 4.3622021788916461e-54 1
919.08731702763509 471.62911909982131 1799.0000000000002 -0 0 -1
919.08731702763509 471.62911909982131 1807.0000000000002 0 -0 1
919.08731702763509 506.62911909982131 -1807 -0 0 -1
919.08731702763509 506.62911909982131 -1799 0 -0 1
919.08731702763509 506.62911909982131 1.0000000000011369 -5.4807774908492102e-36 -4.3622021788916461e-54 -1
919.08731702763509 506.62911909982131 9.0000000000011369 5.4807774908492102e-36 4.3622021788916461e-54 1
919.08731702763509 506.62911909982131 1799.0000000000002 -0 0 -1
919.08731702763509 506.62911909982131 1807.0000000000002 0 -0 1
919.08731702763509 541.62911909982131 -1807 -0 0 -1
919.08731702763509 541.62911909982131 -1799 0 -0 1
919.08731702763509 541.62911909982131 1.0000000000011369 -5.4807774908492102e-36 -4.3622021788916461e-54 -1
919.08731702763509 541.62911909982131 9.0000000000011369 5.4807774908492102e-36 4.3622021788916461e-54 1
919.08731702763509 541.62911909982131 1799.0000000000002 -0 0 -1
919.08731702763509 541.62911909982131 1807.0000000000002 0 -0 1
919.08731702763509 576.62911909982131 -1807 -0 0 -1
919.08731702763509 576.62911909982131 -1799 0 -0 1
919.08731702763509 576.62911909982131 1.0000000000011369 -5.4807774908492102e-36 -4.3622021788916461e-54 -1
919.08731702763509 576.62911909982131 9.0000000000011369 5.4807774908492102e-36 4.3622021788916461e-54 1
919.08731702763509 576.62911909982131 1799.0000000000002 -0 0 -1
919.08731702763509 576.62911909982131 1807.0000000000002 0 -0 1
920.15473709400896 331.62911909982131 1739.9963575467912 -0.4553190907222387 -0.89032832462180711 -8.4423618619547587e-34
920.15473709400896 331.62911909982131 1774.9963575467912 -0.4553190907222387 -0.89032832462180711 -8.4423618619547587e-34
920.15473709400896 331.62911909982131 1809.9963575467912 -0.4553190907222387 -0.89032832462180711 -8.4423618619547587e-34
921.20060126398414 331.62911909982131 -1830.0036424532088 0.47979969132767597 0.8773780577390039 8.8689720212394469e-17
921.20060126398414 331.62911909982131 -1795.0036424532088 0.47979969132767597 0.8773780577390039 8.8689720212394469e-17
921.20060126398414 331.62911909982131 -1760.0036424532088 0.47979969132767597 0.8773780577390039 8.8689720212394469e-17
924.77559649077637 -333.37088090017869 1739.9963575467912 0.45564124333350209 -0.89016350036018688 6.0345358756711956e-17
924.77559649077637 -333.37088090017869 1774.9963575467912 0.45564124333350209 -0.89016350036018688 6.0345358756711956e-17
924.77559649077637 -333.37088090017869 1809.9963575467912 0.45564124333350209 -0.89016350036018688 6.0345358756711956e-17
927.3501857125915 -333.37088090017869 -1830.0036424532088 0.50908342679723528 -0.8607171803562329 -9.410274225578559e-17
927.3501857125915 -333.37088090017869 -1795.0036424532088 0.50908342679723528 -0.8607171803562329 -9.410274225578559e-17
927.3501857125915 -333.37088090017869 -1760.0036424532088 0.50908342679723528 -0.8607171803562329 -9.410274225578559e-17
940.41305949242485 331.62911909982131 1739.9963575467912 0.53010543115649333 0.84793173773505393 9.8290197481295611e-34
940.41305949242485 331.62911909982131 1774.9963575467912 0.53010543115649333 0.84793173773505393 9.8290197481295611e-34
940.41305949242485 331.62911909982131 1809.9963575467912 0.53010543115649333 0.84793173773505393 9.8290197481295611e-34
953.57650457209149 296.62911909982131 -1830.0036424532088 -0.66566919243459544 -0.74624696062595353 -1.230472121973818e-16
953.57650457209149 296.62911909982131 -1795.0036424532088 -0.66566919243459544 -0.74624696062595353 -1.230472121973818e-16
953.57650457209149 296.62911909982131 -1760.0036424532088 -0.66566919243459544 -0.74624696062595353 -1.230472121973818e-16
954.08731702763509 -613.36723844697315 -1830.0036424532088 -1.9116215605835299e-16 -1 4.2760165986582602e-32
954.08731702763509 -613.36723844697315 -1795.0036424532088 -1.9116215605835299e-16 -1 4.2760165986582602e-32
954.08731702763509 -613.36723844697315 -1760.0036424532088 -1.9116215605835299e-16 -1 4.2760165986582602e-32
954.08731702763509 -613.36723844697315 -1725.0036424532088 -1.9116215605835299e-16 -1 4.2760165986582602e-32
954.08731702763509 -613.36723844697315 -1690.0036424532088 -1.9116215605835299e-16 -1 4.2760165986582602e-32
954.08731702763509 -613.36723844697315 -1655.0036424532088 -1.9116215605835299e-16 -1 4.2760165986582602e-32
954.08731702763509 -613.36723844697315 -1620.0036424532088 -1.9116215605835299e-16 -1 4.2760165986582602e-32
954.08731702763509 -613.36723844697315 -1585.0036424532088 -1.9116215605835299e-16 -1 4.2760165986582602e-32
954.08731702763509 -613.36723844697315 -1550.0036424532088 -1.9116215605835299e-16 -1 4.2760165986582602e-32
954.08731702763509 -613.36723844697315 -1515.0036424532088 -1.9116215605835299e-16 -1 4.2760165986582602e-32
954.08731702763509 -613.36723844697315 -1480.0036424532088 -1.9116215605835299e-16 -1 4.2760165986582602e-32
954.08731702763509 -613.36723844697315 -1445.0036424532088 -1.9116215605835299e-16 -1 4.2760165986582602e-32
954.08731702763509 -613.36723844697315 -1410.0036424532088 -1.9116215605835299e-16 -1 4.2760165986582602e-32
954.08731702763509 -613.36723844697315 -570.00364245320884 -1.9116215605835299e-16 -1 4.2760165986582602e-32
954.08731702763509 -613.36723844697315 -535.00364245320884 -1.9116215605835299e-16 -1 4.2760165986582602e-32
954.08731702763509 -613.36723844697315 -500.00364245320884 -1.9116215605835299e-16 -1 4.2760165986582602e-32
954.08731702763509 -613.36723844697315 -465.00364245320884 -1.9116215605835299e-16 -1 4.2760165986582602e-32
954.08731702763509 -613.36723844697315 -430.00364245320884 -1.9116215605835299e-16 -1 4.2760165986582602e-32
954.08731702763509 -613.36723844697315 -395.00364245320884 -1.9116215605835299e-16 -1 4.2760165986582602e-32
954.08731702763509 -613.36723844697315 -360.00364245320884 -1.9116215605835299e-16 -1 4.2760165986582602e-32
954.08731702763509 -613.36723844697315 -325.00364245320884 -1.9116215605835299e-16 -1 4.2760165986582602e-32
954.08731702763509 -613.36723844697315 -290.00364245320884 -1.9116215605835299e-16 -1 4.2760165986582602e-32
954.08731702763509 -613.36723844697315 -255.00364245320884 -1.9116215605835299e-16 -1 4.2760165986582602e-32
954.08731702763509 -613.36723844697315 -220.00364245320884 -1.9116215605835299e-16 -1 4.2760165986582602e-32
954.08731702763509 -613.36723844697315 -185.00364245320884 -1.9116215605835299e-16 -1 4.2760165986582602e-32
954.08731702763509 -613.36723844697315 -150.00364245320884 -1.9116215605835299e-16 -1 4.2760165986582602e-32
954.08731702763509 -613.36723844697315 -115.00364245320884 -1.9116215605835299e-16 -1 4.2760165986582602e-32
954.08731702763509 -613.36723844697315 -80.00364245320884 -1.9116215605835299e-16 -1 4.2760165986582602e-32
954.08731702763509 -613.36723844697315 -45.00364245320884 -1.9116215605835299e-16 -1 4.2760165986582602e-32
954.08731702763509 -613.36723844697315 -10.00364245320884 -1.9116215605835299e-16 -1 4.2760165986582602e-32
954.08731702763509 -613.36723844697315 24.99635754679116 -1.9116215605835299e-16 -1 4.2760165986582602e-32
954.08731702763509 -613.36723844697315 59.99635754679116 -1.9116215605835299e-16 -1 4.2760165986582602e-32
954.08731702763509 -613.36723844697315 94.99635754679116 -1.9116215605835299e-16 -1 4.2760165986582602e-32
954.08731702763509 -613.36723844697315 129.99635754679116 -1.9116215605835299e-16 -1 4.2760165986582602e-32
954.08731702763509 -613.36723844697315 164.99635754679116 -1.9116215605835299e-16 -1 4.2760165986582602e-32
954.08731702763509 -613.36723844697315 199.99635754679116 -1.9116215605835299e-16 -1 4.2760165986582602e-32
954.08731702763509 -613.36723844697315 234.99635754679116 -1.9116215605835299e-16 -1 4.2760165986582602e-32
954.08731702763509 -613.36723844697315 269.99635754679116 -1.9116215605835299e-16 -1 4.2760165986582602e-32
954.08731702763509 -613.36723844697315 304.99635754679116 -1.9116215605835299e-16 -1 4.2760165986582602e-32
954.08731702763509 -613.36723844697315 339.99635754679116 -1.9116215605835299e-16 -1 4.2760165986582602e-32
954.08731702763509 -613.36723844697315 374.99635754679116 -1.9116215605835299e-16 -1 4.2760165986582602e-32
954.08731702763509 -613.36723844697315 409.99635754679116 -1.9116215605835299e-16 -1 4.2760165986582602e-32
954.08731702763509 -613.36723844697315 444.99635754679116 -1.9116215605835299e-16 -1 4.2760165986582602e-32
954.08731702763509 -613.36723844697315 479.99635754679116 -1.9116215605835299e-16 -1 4.2760165986582602e-32
954.08731702763509 -613.36723844697315 1319.9963575467912 -1.9116215605835299e-16 -1 4.2760165986582602e-32
954.08731702763509 -613.36723844697315 1354.9963575467912 -1.9116215605835299e-16 -1 4.2760165986582602e-32
954.08731702763509 -613.36723844697315 1389.9963575467912 -1.9116215605835299e-16 -1 4.2760165986582602e-32
954.08731702763509 -613.36723844697315 1424.9963575467912 -1.9116215605835299e-16 -1 4.2760165986582602e-32
954.08731702763509 -613.36723844697315 1459.9963575467912 -1.9116215605835299e-16 -1 4.2760165986582602e-32
954.08731702763509 -613.36723844697315 1494.9963575467912 -1.9116215605835299e-16 -1 4.2760165986582602e-32
954.08731702763509 -613.36723844697315 1529.9963575467912 -1.9116215605835299e-16 -1 4.2760165986582602e-32
954.08731702763509 -613.36723844697315 1564.9963575467912 -1.9116215605835299e-16 -1 4.2760165986582602e-32
954.08731702763509 -613.36723844697315 1599.9963575467912 -1.9116215605835299e-16 -1 4.2760165986582602e-32
954.08731702763509 -613.36723844697315 1634.9963575467912 -1.9116215605835299e-16 -1 4.2760165986582602e-32
954.08731702763509 -613.36723844697315 1669.9963575467912 -1.9116215605835299e-16 -1 4.2760165986582602e-32
954.08731702763509 -613.36723844697315 1704.9963575467912 -1.9116215605835299e-16 -1 4.2760165986582602e-32
954.08731702763509 -613.36723844697315 1739.9963575467912 -1.9116215605835299e-16 -1 4.2760165986582602e-32
954.08731702763509 -613.36723844697315 1774.9963575467912 -1.9116215605835299e-16 -1 4.2760165986582602e-32
954.08731702763509 -613.36723844697315 1809.9963575467912 -1.9116215605835299e-16 -1 4.2760165986582602e-32
954.08731702763509 -613.36723844697315 1844.9963575467912 -1.9116215605835299e-16 -1 4.2760165986582602e-32
954.08731702763509 -606.09453893826264 1844.9963575467912 5.4803931879593198e-08 -0.99999999999999856 1.2151946739891201e-16
954.08731702763509 -605.36723844697315 -1830.0036424532088 1.9116215605835299e-16 1 -4.2760165986582602e-32
954.08731702763509 -605.36723844697315 -1795.0036424532088 1.9116215605835299e-16 1 -4.2760165986582602e-32
954.08731702763509 -605.36723844697315 -1760.0036424532088 1.9116215605835299e-16 1 -4.2760165986582602e-32
954.08731702763509 -605.36723844697315 -1725.0036424532088 1.9116215605835299e-16 1 -4.2760165986582602e-32
954.08731702763509 -605.36723844697315 -1690.0036424532088 1.9116215605835299e-16 1 -4.2760165986582602e-32
954.08731702763509 -605.36723844697315 -1655.0036424532088 1.9116215605835299e-16 1 -4.2760165986582602e-32
954.08731702763509 -605.36723844697315 -1620.0036424532088 1.9116215605835299e-16 1 -4.2760165986582602e-32
954.08731702763509 -605.36723844697315 -1585.0036424532088 1.9116215605835299e-16 1 -4.2760165986582602e-32
954.08731702763509 -605.36723844697315 -1550.0036424532088 1.9116215605835299e-16 1 -4.2760165986582602e-32
954.08731702763509 -605.36723844697315 -1515.0036424532088 1.9116215605835299e-16 1 -4.2760165986582602e-32
954.08731702763509 -605.36723844697315 -1480.0036424532088 1.9116215605835299e-16 1 -4.2760165986582602e-32
954.08731702763509 -605.36723844697315 -1445.0036424532088 1.9116215605835299e-16 1 -4.2760165986582602e-32
954.08731702763509 -605.36723844697315 -1410.0036424532088 1.9116215605835299e-16 1 -4.2760165986582602e-32
954.08731702763509 -605.36723844697315 -570.00364245320884 1.9116215605835299e-16 1 -4.2760165986582602e-32
954.08731702763509 -605.36723844697315 -535.00364245320884 1.9116215605835299e-16 1 -4.2760165986582602e-32
954.08731702763509 -605.36723844697315 -500.00364245320884 1.9116215605835299e-16 1 -4.2760165986582602e-32
954.08731702763509 -605.36723844697315 -465.00364245320884 1.9116215605835299e-16 1 -4.2760165986582602e-32
954.08731702763509 -605.36723844697315 -430.00364245320884 1.9116215605835299e-16 1 -4.2760165986582602e-32
954.08731702763509 -605.36723844697315 -395.00364245320884 1.9116215605835299e-16 1 -4.2760165986582602e-32
954.08731702763509 -605.36723844697315 -360.00364245320884 1.9116215605835299e-16 1 -4.2760165986582602e-32
954.08731702763509 -605.36723844697315 -325.00364245320884 1.9116215605835299e-16 1 -4.2760165986582602e-32
954.08731702763509 -605.36723844697315 -290.00364245320884 1.9116215605835299e-16 1 -4.2760165986582602e-32
954.08731702763509 -605.36723844697315 -255.00364245320884 1.9116215605835299e-16 1 -4.2760165986582602e-32
954.08731702763509 -605.36723844697315 -220.00364245320884 1.9116215605835299e-16 1 -4.2760165986582602e-32
954.08731702763509 -605.36723844697315 -185.00364245320884 1.9116215605835299e-16 1 -4.2760165986582602e-32
954.08731702763509 -605.36723844697315 -150.00364245320884 1.9116215605835299e-16 1 -4.2760165986582602e-32
954.08731702763509 -605.36723844697315 -115.00364245320884 1.9116215605835299e-16 1 -4.2760165986582602e-32
954.08731702763509 -605.36723844697315 -80.00364245320884 1.9116215605835299e-16 1 -4.2760165986582602e-32
954.08731702763509 -605.36723844697315 -45.00364245320884 1.9116215605835299e-16 1 -4.2760165986582602e-32
954.08731702763509 -605.36723844697315 -10.00364245320884 1.9116215605835299e-16 1 -4.2760165986582602e-32
954.08731702763509 -605.36723844697315 24.99635754679116 1.9116215605835299e-16 1 -4.2760165986582602e-32
954.08731702763509 -605.36723844697315 59.99635754679116 1.9116215605835299e-16 1 -4.2760165986582602e-32
954.08731702763509 -605.36723844697315 94.99635754679116 1.9116215605835299e-16 1 -4.2760165986582602e-32
954.08731702763509 -605.36723844697315 129.99635754679116 1.9116215605835299e-16 1 -4.2760165986582602e-32
954.08731702763509 -605.36723844697315 164.99635754679116 1.9116215605835299e-16 1 -4.2760165986582602e-32
954.08731702763509 -605.36723844697315 199.99635754679116 1.9116215605835299e-16 1 -4.2760165986582602e-32
954.08731702763509 -605.36723844697315 234.99635754679116 1.9116215605835299e-16 1 -4.2760165986582602e-32
954.08731702763509 -605.36723844697315 269.99635754679116 1.9116215605835299e-16 1 -4.2760165986582602e-32
954.08731702763509 -605.36723844697315 304.99635754679116 1.9116215605835299e-16 1 -4.2760165986582602e-32
954.08731702763509 -605.36723844697315 339.99635754679116 1.9116215605835299e-16 1 -4.2760165986582602e-32
954.08731702763509 -605.36723844697315 374.99635754679116 1.9116215605835299e-16 1 -4.2760165986582602e-32
954.08731702763509 -605.36723844697315 409.99635754679116 1.9116215605835299e-16 1 -4.2760165986582602e-32
954.08731702763509 -605.36723844697315 444.99635754679116 1.9116215605835299e-16 1 -4.2760165986582602e-32
954.08731702763509 -605.36723844697315 479.99635754679116 1.9116215605835299e-16 1 -4.2760165986582602e-32
954.08731702763509 -605.36723844697315 1319.9963575467912 1.9116215605835299e-16 1 -4.2760165986582602e-32
954.08731702763509 -605.36723844697315 1354.9963575467912 1.9116215605835299e-16 1 -4.2760165986582602e-32
954.08731702763509 -605.36723844697315 1389.9963575467912 1.9116215605835299e-16 1 -4.2760165986582602e-32
954.08731702763509 -605.36723844697315 1424.9963575467912 1.9116215605835299e-16 1 -4.2760165986582602e-32
954.08731702763509 -605.36723844697315 1459.9963575467912 1.9116215605835299e-16 1 -4.2760165986582602e-32
954.08731702763509 -605.36723844697315 1494.9963575467912 1.9116215605835299e-16 1 -4.2760165986582602e-32
954.08731702763509 -605.36723844697315 1529.9963575467912 1.9116215605835299e-16 1 -4.2760165986582602e-32
954.08731702763509 -605.36723844697315 1564.9963575467912 1.9116215605835299e-16 1 -4.2760165986582602e-32
954.08731702763509 -605.36723844697315 1599.9963575467912 1.9116215605835299e-16 1 -4.2760165986582602e-32
954.08731702763509 -605.36723844697315 1634.9963575467912 1.9116215605835299e-16 1 -4.2760165986582602e-32
954.08731702763509 -605.36723844697315 1669.9963575467912 1.9116215605835299e-16 1 -4.2760165986582602e-32
954.08731702763509 -605.36723844697315 1704.9963575467912 1.9116215605835299e-16 1 -4.2760165986582602e-32
954.08731702763509 -605.36723844697315 1739.9963575467912 1.9116215605835299e-16 1 -4.2760165986582602e-32
954.08731702763509 -605.36723844697315 1774.9963575467912 1.9116215605835299e-16 1 -4.2760165986582602e-32
954.08731702763509 -605.36723844697315 1809.9963575467912 1.9116215605835299e-16 1 -4.2760165986582602e-32
954.08731702763509 -605.36723844697315 1844.9963575467912 1.9116215605835299e-16 1 -4.2760165986582602e-32
954.08731702763509 -604.67612488133807 1809.9963575467912 5.0485339248857668e-08 -0.92119921905976376 -0.38909124740050216
954.08731702763509 -598.09453893826264 1844.9963575467912 -5.4803931879532066e-08 0.99999999999999856 -1.2151946739891201e-16
954.08731702763509 -597.36723844697281 -1830.0036424532088 1.9123903639374096e-16 1 -2.7137105751913901e-16
954.08731702763509 -595.23239522622441 1809.9963575467912 -3.9118258977159167e-08 0.71378562879622531 0.7003642453209441
954.08731702763509 -578.37088090017869 -1807 -0 0 -1
954.08731702763509 -578.37088090017869 -1799 0 -0 1
954.08731702763509 -578.37088090017869 1.0000000000011369 -5.4807774908492102e-36 -4.3622021788916461e-54 -1
954.08731702763509 -578.37088090017869 9.0000000000011369 5.4807774908492102e-36 4.3622021788916461e-54 1
954.08731702763509 -578.37088090017869 1799.0000000000002 -0 0 -1
954.08731702763509 -578.37088090017869 1807.0000000000002 0 -0 1
954.08731702763509 -543.37088090017869 -1807 -0 0 -1
954.08731702763509 -543.37088090017869 -1799 0 -0 1
954.08731702763509 -543.37088090017869 1.0000000000011369 -5.4807774908492102e-36 -4.3622021788916461e-54 -1
954.08731702763509 -543.37088090017869 9.0000000000011369 5.4807774908492102e-36 4.3622021788916461e-54 1
954.08731702763509 -543.37088090017869 1799.0000000000002 -0 0 -1
954.08731702763509 -543.37088090017869 1807.0000000000002 0 -0 1
954.08731702763509 -508.37088090017869 -1807 -0 0 -1
954.08731702763509 -508.37088090017869 -1799 0 -0 1
954.08731702763509 -508.37088090017869 1.0000000000011369 -5.4807774908492102e-36 -4.3622021788916461e-54 -1
954.08731702763509 -508.37088090017869 9.0000000000011369 5.4807774908492102e-36 4.3622021788916461e-54 1
954.08731702763509 -508.37088090017869 1799.0000000000002 -0 0 -1
954.08731702763509 -508.37088090017869 1807.0000000000002 0 -0 1
954.08731702763509 -473.37088090017869 -1807 -0 0 -1
954.08731702763509 -473.37088090017869 -1799 0 -0 1
954.08731702763509 -473.37088090017869 1.0000000000011369 -5.4807774908492102e-36 -4.3622021788916461e-54 -1
954.08731702763509 -473.37088090017869 9.0000000000011369 5.4807774908492102e-36 4.3622021788916461e-54 1
954.08731702763509 -473.37088090017869 1799.0000000000002 -0 0 -1
954.08731702763509 -473.37088090017869 1807.0000000000002 0 -0 1
954.08731702763509 -438.37088090017869 -1807 -0 0 -1
954.08731702763509 -438.37088090017869 -1799 0 -0 1
954.08731702763509 -438.37088090017869 1.0000000000011369 -5.4807774908492102e-36 -4.3622021788916461e-54 -1
954.08731702763509 -438.37088090017869 9.0000000000011369 5.4807774908492102e-36 4.3622021788916461e-54 1
954.08731702763509 -438.37088090017869 1799.0000000000002 -0 0 -1
954.08731702763509 -438.37088090017869 1807.0000000000002 0 -0 1
954.08731702763509 -403.37088090017869 -1807 -0 0 -1
954.08731702763509 -403.37088090017869 -1799 0 -0 1
954.08731702763509 -403.37088090017869 1.0000000000011369 -5.4807774908492102e-36 -4.3622021788916461e-54 -1
954.08731702763509 -403.37088090017869 9.0000000000011369 5.4807774908492102e-36 4.3622021788916461e-54 1
954.08731702763509 -403.37088090017869 1799.0000000000002 -0 0 -1
954.08731702763509 -403.37088090017869 1807.0000000000002 0 -0 1
954.08731702763509 -368.37088090017869 -1807 -0 0 -1
954.08731702763509 -368.37088090017869 -1799 0 -0 1
954.08731702763509 -368.37088090017869 1.0000000000011369 -5.4807774908492102e-36 -4.3622021788916461e-54 -1
954.08731702763509 -368.37088090017869 9.0000000000011369 5.4807774908492102e-36 4.3622021788916461e-54 1
954.08731702763509 -368.37088090017869 1799.0000000000002 -0 0 -1
954.08731702763509 -368.37088090017869 1807.0000000000002 0 -0 1
954.08731702763509 -333.37088090017869 -1807 -0 0 -1
954.08731702763509 -333.37088090017869 -1799 0 -0 1
954.08731702763509 -333.37088090017869 1.0000000000011369 -5.4807774908492102e-36 -4.3622021788916461e-54 -1
954.08731702763509 -333.37088090017869 9.0000000000011369 5.4807774908492102e-36 4.3622021788916461e-54 1
954.08731702763509 -333.37088090017869 1799.0000000000002 -0 0 -1
954.08731702763509 -333.37088090017869 1807.0000000000002 0 -0 1
954.08731702763509 -315.18459641382441 1739.9963575467912 0.5952208649375913 -0.80356214566326201 7.8831357669883186e-17
954.08731702763509 -315.18459641382441 1774.9963575467912 0.5952208649375913 -0.80356214566326201 7.8831357669883186e-17
954.08731702763509 -315.18459641382441 1809.9963575467912 0.5952208649375913 -0.80356214566326201 7.8831357669883186e-17
954.08731702763509 -314.60517131674538 -1830.0036424532088 0.63640309972601383 -0.77135665853035928 -1.1763745137229308e-16
954.08731702763509 -314.60517131674538 -1795.0036424532088 0.63640309972601383 -0.77135665853035928 -1.1763745137229308e-16
954.08731702763509 -314.60517131674538 -1760.0036424532088 0.63640309972601383 -0.77135665853035928 -1.1763745137229308e-16
954.08731702763509 -302.56439272471249 1739.9963575467912 -0.62498190818447119 0.78063923450086548 -8.2772926011381079e-17
954.08731702763509 -302.56439272471249 1774.9963575467912 -0.62498190818447119 0.78063923450086548 -8.2772926011381079e-17
954.08731702763509 -302.56439272471249 1809.9963575467912 -0.62498190818447119 0.78063923450086548 -8.2772926011381079e-17
954.08731702763509 -301.41243435945114 -1830.0036424532088 -0.6682232547123147 0.74396080667040598 1.2351932394090777e-16
954.08731702763509 -301.41243435945114 -1795.0036424532088 -0.6682232547123147 0.74396080667040598 1.2351932394090777e-16
954.08731702763509 -301.41243435945114 -1760.0036424532088 -0.6682232547123147 0.74396080667040598 1.2351932394090777e-16
954.08731702763509 -298.37088090017869 1.0000000000011369 -5.4807774908492102e-36 -4.3622021788916461e-54 -1
954.08731702763509 -298.37088090017869 9.0000000000011369 5.4807774908492102e-36 4.3622021788916461e-54 1
954.08731702763509 -263.37088090017869 1.0000000000011369 -5.4807774908492102e-36 -4.3622021788916461e-54 -1
954.08731702763509 -263.37088090017869 9.0000000000011369 5.4807774908492102e-36 4.3622021788916461e-54 1
954.08731702763509 -228.37088090017869 1.0000000000011369 -5.4807774908492102e-36 -4.3622021788916461e-54 -1
954.08731702763509 -228.37088090017869 9.0000000000011369 5.4807774908492102e-36 4.3622021788916461e-54 1
954.08731702763509 -193.37088090017869 1.0000000000011369 -5.4807774908492102e-36 -4.3622021788916461e-54 -1
954.08731702763509 -193.37088090017869 9.0000000000011369 5.4807774908492102e-36 4.3622021788916461e-54 1
954.08731702763509 -158.37088090017869 1.0000000000011369 -5.4807774908492102e-36 -4.3622021788916461e-54 -1
954.08731702763509 -158.37088090017869 9.0000000000011369 5.4807774908492102e-36 4.3622021788916461e-54 1
954.08731702763509 -123.37088090017869 1.0000000000011369 -5.4807774908492102e-36 -4.3622021788916461e-54 -1
954.08731702763509 -123.37088090017869 9.0000000000011369 5.4807774908492102e-36 4.3622021788916461e-54 1
954.08731702763509 -88.37088090017869 1.0000000000011369 -5.4807774908492102e-36 -4.3622021788916461e-54 -1
954.08731702763509 -88.37088090017869 9.0000000000011369 5.4807774908492102e-36 4.3622021788916461e-54 1
954.08731702763509 -53.37088090017869 1.0000000000011369 -5.4807774908492102e-36 -4.3622021788916461e-54 -1
954.08731702763509 -53.37088090017869 9.0000000000011369 5.4807774908492102e-36 4.3622021788916461e-54 1
954.08731702763509 -18.37088090017869 1.0000000000011369 -5.4807774908492102e-36 -4.3622021788916461e-54 -1
954.08731702763509 -18.37088090017869 9.0000000000011369 5.4807774908492102e-36 4.3622021788916461e-54 1
954.08731702763509 5.9484260615893163 -150.00364245320884 -2.9151152268471099e-16 -1 1.6020719940324345e-51
954.08731702763509 5.9484260615893163 -115.00364245320884 -2.9151152268471099e-16 -1 1.6020719940324345e-51
954.08731702763509 5.9484260615893163 -80.00364245320884 -2.9151152268471099e-16 -1 1.6020719940324345e-51
954.08731702763509 5.9484260615893163 -45.00364245320884 -2.9151152268471099e-16 -1 1.6020719940324345e-51
954.08731702763509 5.9484260615893163 -10.00364245320884 -2.9151152268471099e-16 -1 1.6020719940324345e-51
954.08731702763509 12.948426061589316 -115.00364245320884 2.9151152268471099e-16 1 -1.6020719940324345e-51
954.08731702763509 12.948426061589316 -80.00364245320884 2.9151152268471099e-16 1 -1.6020719940324345e-51
954.08731702763509 12.948426061589316 -45.00364245320884 2.9151152268471099e-16 1 -1.6020719940324345e-51
954.08731702763509 12.948426061589316 -10.00364245320884 2.9151152268471099e-16 1 -1.6020719940324345e-51
954.08731702763509 16.62911909982131 -159 -5.4807774908492102e-36 -4.3622021788919765e-54 -1
954.08731702763509 16.62911909982131 -138.95924160885511 1.4575576134241086e-16 0.50000000000018996 0.86602540378432902
954.08731702763509 16.62911909982131 1.0000000000011369 -5.4807774908492102e-36 -4.3622021788916461e-54 -1
954.08731702763509 16.62911909982131 9.0000000000011369 5.4807774908492102e-36 4.3622021788916461e-54 1
954.08731702763509 34.146679754104866 -150.00364245320884 2.5255847486789793e-16 0.86637561541969177 0.49939292446544559
954.08731702763509 51.62911909982131 1.0000000000011369 -5.4807774908492102e-36 -4.3622021788916461e-54 -1
954.08731702763509 51.62911909982131 9.0000000000011369 5.4807774908492102e-36 4.3622021788916461e-54 1
954.08731702763509 86.62911909982131 1.0000000000011369 -5.4807774908492102e-36 -4.3622021788916461e-54 -1
954.08731702763509 86.62911909982131 9.0000000000011369 5.4807774908492102e-36 4.3622021788916461e-54 1
954.08731702763509 121.62911909982131 1.0000000000011369 -5.4807774908492102e-36 -4.3622021788916461e-54 -1
954.08731702763509 121.62911909982131 9.0000000000011369 5.4807774908492102e-36 4.3622021788916461e-54 1
954.08731702763509 156.62911909982131 1.0000000000011369 -5.4807774908492102e-36 -4.3622021788916461e-54 -1
954.08731702763509 156.62911909982131 9.0000000000011369 5.4807774908492102e-36 4.3622021788916461e-54 1
954.08731702763509 191.62911909982131 1.0000000000011369 -5.4807774908492102e-36 -4.3622021788916461e-54 -1
954.08731702763509 191.62911909982131 9.0000000000011369 5.4807774908492102e-36 4.3622021788916461e-54 1
954.08731702763509 226.62911909982131 1.0000000000011369 -5.4807774908492102e-36 -4.3622021788916461e-54 -1
954.08731702763509 226.62911909982131 9.0000000000011369 5.4807774908492102e-36 4.3622021788916461e-54 1
954.08731702763509 261.62911909982131 1.0000000000011369 -5.4807774908492102e-36 -4.3622021788916461e-54 -1
954.08731702763509 261.62911909982131 9.0000000000011369 5.4807774908492102e-36 4.3622021788916461e-54 1
954.08731702763509 296.17188830871237 -1830.0036424532088 -0.66822325471231248 -0.74396080667040787 -1.235193239409074e-16
954.08731702763509 296.17188830871237 -1795.0036424532088 -0.66822325471231248 -0.74396080667040787 -1.235193239409074e-16
954.08731702763509 296.17188830871237 -1760.0036424532088 -0.66822325471231248 -0.74396080667040787 -1.235193239409074e-16
954.08731702763509 296.62911909982131 -1839 1.8484738905724802e-16 4.4298132019484907e-32 -1
954.08731702763509 296.62911909982131 -1739 -1.8484738905724802e-16 -4.4298132019484907e-32 1
954.08731702763509 296.62911909982131 1.0000000000011369 -5.4807774908492102e-36 -4.3622021788916461e-54 -1
954.08731702763509 296.62911909982131 9.0000000000011369 5.4807774908492102e-36 4.3622021788916461e-54 1
954.08731702763509 309.36462526600656 -1830.0036424532088 0.63640309972601217 0.77135665853036073 1.1763745137229281e-16
954.08731702763509 309.36462526600656 -1795.0036424532088 0.63640309972601217 0.77135665853036073 1.1763745137229281e-16
954.08731702763509 309.36462526600656 -1760.0036424532088 0.63640309972601217 0.77135665853036073 1.1763745137229281e-16
954.08731702763509 309.69128791277728 1739.9963575467912 -0.62498199039037161 -0.78063916868658934 -1.1588182052293536e-33
954.08731702763509 309.69128791277728 1774.9963575467912 -0.62498199039037161 -0.78063916868658934 -1.1588182052293536e-33
954.08731702763509 309.69128791277728 1809.9963575467912 -0.62498199039037161 -0.78063916868658934 -1.1588182052293536e-33
954.08731702763509 322.31149258630307 1739.9963575467912 0.59522094322892516 0.80356208767068438 1.1036364937148147e-33
954.08731702763509 322.31149258630307 1774.9963575467912 0.59522094322892516 0.80356208767068438 1.1036364937148147e-33
954.08731702763509 322.31149258630307 1809.9963575467912 0.59522094322892516 0.80356208767068438 1.1036364937148147e-33
954.08731702763509 331.62911909982131 -1807 -0 0 -1
954.08731702763509 331.62911909982131 -1799 0 -0 1
954.08731702763509 331.62911909982131 1.0000000000011369 -5.4807774908492102e-36 -4.3622021788916461e-54 -1
954.08731702763509 331.62911909982131 9.0000000000011369 5.4807774908492102e-36 4.3622021788916461e-54 1
954.08731702763509 331.62911909982131 1799.0000000000002 -0 0 -1
954.08731702763509 331.62911909982131 1807.0000000000002 0 -0 1
954.08731702763509 366.62911909982131 -1807 -0 0 -1
954.08731702763509 366.62911909982131 -1799 0 -0 1
954.08731702763509 366.62911909982131 1.0000000000011369 -5.4807774908492102e-36 -4.3622021788916461e-54 -1
954.08731702763509 366.62911909982131 9.0000000000011369 5.4807774908492102e-36 4.3622021788916461e-54 1
954.08731702763509 366.62911909982131 1799.0000000000002 -0 0 -1
954.08731702763509 366.62911909982131 1807.0000000000002 0 -0 1
954.08731702763509 401.62911909982131 -1807 -0 0 -1
954.08731702763509 401.62911909982131 -1799 0 -0 1
954.08731702763509 401.62911909982131 1.0000000000011369 -5.4807774908492102e-36 -4.3622021788916461e-54 -1
954.08731702763509 401.62911909982131 9.0000000000011369 5.4807774908492102e-36 4.3622021788916461e-54 1
954.08731702763509 401.62911909982131 1799.0000000000002 -0 0 -1
954.08731702763509 401.62911909982131 1807.0000000000002 0 -0 1
954.08731702763509 436.62911909982131 -1807 -0 0 -1
954.08731702763509 436.62911909982131 -1799 0 -0 1
954.08731702763509 436.62911909982131 1.0000000000011369 -5.4807774908492102e-36 -4.3622021788916461e-54 -1
954.08731702763509 436.62911909982131 9.0000000000011369 5.4807774908492102e-36 4.3622021788916461e-54 1
954.08731702763509 436.62911909982131 1799.0000000000002 -0 0 -1
954.08731702763509 436.62911909982131 1807.0000000000002 0 -0 1
954.08731702763509 471.62911909982131 -1807 -0 0 -1
954.08731702763509 471.62911909982131 -1799 0 -0 1
954.08731702763509 471.62911909982131 1.0000000000011369 -5.4807774908492102e-36 -4.3622021788916461e-54 -1
954.08731702763509 471.62911909982131 9.0000000000011369 5.4807774908492102e-36 4.3622021788916461e-54 1
954.08731702763509 471.62911909982131 1799.0000000000002 -0 0 -1
954.08731702763509 471.62911909982131 1807.0000000000002 0 -0 1
954.08731702763509 506.62911909982131 -1807 -0 0 -1
954.08731702763509 506.62911909982131 -1799 0 -0 1
954.08731702763509 506.62911909982131 1.0000000000011369 -5.4807774908492102e-36 -4.3622021788916461e-54 -1
954.08731702763509 506.62911909982131 9.0000000000011369 5.4807774908492102e-36 4.3622021788916461e-54 1
954.08731702763509 506.62911909982131 1799.0000000000002 -0 0 -1
954.08731702763509 506.62911909982131 1807.0000000000002 0 -0 1
954.08731702763509 541.62911909982131 -1807 -0 0 -1
954.08731702763509 541.62911909982131 -1799 0 -0 1
954.08731702763509 541.62911909982131 1.0000000000011369 -5.4807774908492102e-36 -4.3622021788916461e-54 -1
954.08731702763509 541.62911909982131 9.0000000000011369 5.4807774908492102e-36 4.3622021788916461e-54 1
954.08731702763509 541.62911909982131 1799.0000000000002 -0 0 -1
954.08731702763509 541.62911909982131 1807.0000000000002 0 -0 1
954.08731702763509 576.62911909982131 -1807 -0 0 -1
954.08731702763509 576.62911909982131 -1799 0 -0 1
954.08731702763509 576.62911909982131 1.0000000000011369 -5.4807774908492102e-36 -4.3622021788916461e-54 -1
954.08731702763509 576.62911909982131 9.0000000000011369 5.4807774908492102e-36 4.3622021788916461e-54 1
954.08731702763509 576.62911909982131 1799.0000000000002 -0 0 -1
954.08731702763509 576.62911909982131 1807.0000000000002 0 -0 1
957.39798837723799 -298.37088090017869 -1830.0036424532088 -0.68477661146032986 0.7287530393740449 1.2657916871591157e-16
957.39798837723799 -298.37088090017869 -1795.0036424532088 -0.68477661146032986 0.7287530393740449 1.2657916871591157e-16
957.39798837723799 -298.37088090017869 -1760.0036424532088 -0.68477661146032986 0.7287530393740449 1.2657916871591157e-16
959.1522971594203 -298.37088090017869 1739.9963575467912 -0.65030680884339764 0.75967167537819702 -8.6126969287904096e-17
959.1522971594203 -298.37088090017869 1774.9963575467912 -0.65030680884339764 0.75967167537819702 -8.6126969287904096e-17
959.1522971594203 -298.37088090017869 1809.9963575467912 -0.65030680884339764 0.75967167537819702 -8.6126969287904096e-17
968.17424344851418 296.62911909982131 -1830.0036424532088 0.70348370173019903 0.71071139107233705 1.3003712550915515e-16
968.17424344851418 296.62911909982131 -1795.0036424532088 0.70348370173019903 0.71071139107233705 1.3003712550915515e-16
968.17424344851418 296.62911909982131 -1760.0036424532088 0.70348370173019903 0.71071139107233705 1.3003712550915515e-16
968.84862184908081 296.62911909982131 1739.9963575467912 -0.69878851449759793 -0.71532832462180629 -1.2956672161991759e-33
968.84862184908081 296.62911909982131 1774.9963575467912 -0.69878851449759793 -0.71532832462180629 -1.2956672161991759e-33
968.84862184908081 296.62911909982131 1809.9963575467912 -0.69878851449759793 -0.71532832462180629 -1.2956672161991759e-33
971.62719010837907 -298.37088090017869 -1830.0036424532088 0.7199263048724146 -0.6940505136895665 -1.3307649776929818e-16
971.62719010837907 -298.37088090017869 -1795.0036424532088 0.7199263048724146 -0.6940505136895665 -1.3307649776929818e-16
971.62719010837907 -298.37088090017869 -1760.0036424532088 0.7199263048724146 -0.6940505136895665 -1.3307649776929818e-16
974.05975212428291 -298.37088090017869 1739.9963575467912 0.69032769873115318 -0.72349683369352091 9.1427357195248188e-17
974.05975212428291 -298.37088090017869 1774.9963575467912 0.69032769873115318 -0.72349683369352091 9.1427357195248188e-17
974.05975212428291 -298.37088090017869 1809.9963575467912 0.69032769873115318 -0.72349683369352091 9.1427357195248188e-17
982.81865073452707 296.62911909982131 1739.9963575467912 0.73203681802364673 0.68126507106838674 1.3573148400985967e-33
982.81865073452707 296.62911909982131 1774.9963575467912 0.73203681802364673 0.68126507106838674 1.3573148400985967e-33
982.81865073452707 296.62911909982131 1809.9963575467912 0.73203681802364673 0.68126507106838674 1.3573148400985967e-33
984.59831295430797 261.62911909982131 -1830.0036424532088 -0.82077823434567809 -0.57124696062595481 -1.5171871361381669e-16
984.59831295430797 261.62911909982131 -1795.0036424532088 -0.82077823434567809 -0.57124696062595481 -1.5171871361381669e-16
984.59831295430797 261.62911909982131 -1760.0036424532088 -0.82077823434567809 -0.57124696062595481 -1.5171871361381669e-16
986.97885691275235 -263.37088090017869 -1830.0036424532088 -0.83268095413790244 0.55375303937404485 1.5391890029008934e-16
986.97885691275235 -263.37088090017869 -1795.0036424532088 -0.83268095413790244 0.55375303937404485 1.5391890029008934e-16
986.97885691275235 -263.37088090017869 -1760.0036424532088 -0.83268095413790244 0.55375303937404485 1.5391890029008934e-16
989.08731702763509 -613.36723844697315 -1830.0036424532088 -1.9116215605835299e-16 -1 4.2760165986582602e-32
989.08731702763509 -613.36723844697315 -1795.0036424532088 -1.9116215605835299e-16 -1 4.2760165986582602e-32
989.08731702763509 -613.36723844697315 -1760.0036424532088 -1.9116215605835299e-16 -1 4.2760165986582602e-32
989.08731702763509 -613.36723844697315 -1725.0036424532088 -1.9116215605835299e-16 -1 4.2760165986582602e-32
989.08731702763509 -613.36723844697315 -1690.0036424532088 -1.9116215605835299e-16 -1 4.2760165986582602e-32
989.08731702763509 -613.36723844697315 -1655.0036424532088 -1.9116215605835299e-16 -1 4.2760165986582602e-32
989.08731702763509 -613.36723844697315 -1620.0036424532088 -1.9116215605835299e-16 -1 4.2760165986582602e-32
989.08731702763509 -613.36723844697315 -1585.0036424532088 -1.9116215605835299e-16 -1 4.2760165986582602e-32
989.08731702763509 -613.36723844697315 -1550.0036424532088 -1.9116215605835299e-16 -1 4.2760165986582602e-32
989.08731702763509 -613.36723844697315 -1515.0036424532088 -1.9116215605835299e-16 -1 4.2760165986582602e-32
989.08731702763509 -613.36723844697315 -1480.0036424532088 -1.9116215605835299e-16 -1 4.2760165986582602e-32
989.08731702763509 -613.36723844697315 -1445.0036424532088 -1.9116215605835299e-16 -1 4.2760165986582602e-32
989.08731702763509 -613.36723844697315 -1410.0036424532088 -1.9116215605835299e-16 -1 4.2760165986582602e-32
989.08731702763509 -613.36723844697315 -1375.0036424532088 -1.9116215605835299e-16 -1 4.2760165986582602e-32
989.08731702763509 -613.36723844697315 -605.00364245320884 -1.9116215605835299e-16 -1 4.2760165986582602e-32
989.08731702763509 -613.36723844697315 -570.00364245320884 -1.9116215605835299e-16 -1 4.2760165986582602e-32
989.08731702763509 -613.36723844697315 -535.00364245320884 -1.9116215605835299e-16 -1 4.2760165986582602e-32
989.08731702763509 -613.36723844697315 -500.00364245320884 -1.9116215605835299e-16 -1 4.2760165986582602e-32
989.08731702763509 -613.36723844697315 -465.00364245320884 -1.9116215605835299e-16 -1 4.2760165986582602e-32
989.08731702763509 -613.36723844697315 -430.00364245320884 -1.9116215605835299e-16 -1 4.2760165986582602e-32
989.08731702763509 -613.36723844697315 -395.00364245320884 -1.9116215605835299e-16 -1 4.2760165986582602e-32
989.08731702763509 -613.36723844697315 -360.00364245320884 -1.9116215605835299e-16 -1 4.2760165986582602e-32
989.08731702763509 -613.36723844697315 -325.00364245320884 -1.9116215605835299e-16 -1 4.2760165986582602e-32
989.08731702763509 -613.36723844697315 -290.00364245320884 -1.9116215605835299e-16 -1 4.2760165986582602e-32
989.08731702763509 -613.36723844697315 -255.00364245320884 -1.9116215605835299e-16 -1 4.2760165986582602e-32
989.08731702763509 -613.36723844697315 -220.00364245320884 -1.9116215605835299e-16 -1 4.2760165986582602e-32
989.08731702763509 -613.36723844697315 -185.00364245320884 -1.9116215605835299e-16 -1 4.2760165986582602e-32
989.08731702763509 -613.36723844697315 -150.00364245320884 -1.9116215605835299e-16 -1 4.2760165986582602e-32
989.08731702763509 -613.36723844697315 -115.00364245320884 -1.9116215605835299e-16 -1 4.2760165986582602e-32
989.08731702763509 -613.36723844697315 -80.00364245320884 -1.9116215605835299e-16 -1 4.2760165986582602e-32
989.08731702763509 -613.36723844697315 -45.00364245320884 -1.9116215605835299e-16 -1 4.2760165986582602e-32
989.08731702763509 -613.36723844697315 -10.00364245320884 -1.9116215605835299e-16 -1 4.2760165986582602e-32
989.08731702763509 -613.36723844697315 24.99635754679116 -1.9116215605835299e-16 -1 4.2760165986582602e-32
989.08731702763509 -613.36723844697315 59.99635754679116 -1.9116215605835299e-16 -1 4.2760165986582602e-32
989.08731702763509 -613.36723844697315 94.99635754679116 -1.9116215605835299e-16 -1 4.2760165986582602e-32
989.08731702763509 -613.36723844697315 129.99635754679116 -1.9116215605835299e-16 -1 4.2760165986582602e-32
989.08731702763509 -613.36723844697315 164.99635754679116 -1.9116215605835299e-16 -1 4.2760165986582602e-32
989.08731702763509 -613.36723844697315 199.99635754679116 -1.9116215605835299e-16 -1 4.2760165986582602e-32
989.08731702763509 -613.36723844697315 234.99635754679116 -1.9116215605835299e-16 -1 4.2760165986582602e-32
989.08731702763509 -613.36723844697315 269.99635754679116 -1.9116215605835299e-16 -1 4.2760165986582602e-32
989.08731702763509 -613.36723844697315 304.99635754679116 -1.9116215605835299e-16 -1 4.2760165986582602e-32
989.08731702763509 -613.36723844697315 339.99635754679116 -1.9116215605835299e-16 -1 4.2760165986582602e-32
989.08731702763509 -613.36723844697315 374.99635754679116 -1.9116215605835299e-16 -1 4.2760165986582602e-32
989.08731702763509 -613.36723844697315 409.99635754679116 -1.9116215605835299e-16 -1 4.2760165986582602e-32
