ply
format ascii 1.0
comment Written with hapPLY (https://github.com/nmwsharp/happly)
element vertex 568
property double x
property double y
property double z
property double nx
property double ny
property double nz
end_header
1094.0909593808406 -413.36723854697311 1807.0000000000002 0 -0 1
1094.0909593808406 -388.36723854697311 1799.0000000000002 -0 0 -1
1094.0909593808406 -388.36723854697311 1807.0000000000002 0 -0 1
1094.0909593808406 -363.36723854697311 -1807 -0 0 -1
1094.0909593808406 -363.36723854697311 -1799 0 -0 1
1094.0909593808406 -363.36723854697311 1799.0000000000002 -0 0 -1
1094.0909593808406 -363.36723854697311 1807.0000000000002 0 -0 1
1094.0909593808406 -338.36723854697311 -1807 -0 0 -1
1094.0909593808406 -338.36723854697311 -1799 0 -0 1
1094.0909593808406 -338.36723854697311 1799.0000000000002 -0 0 -1
1094.0909593808406 -338.36723854697311 1807.0000000000002 0 -0 1
1094.0909593808406 -313.36723854697311 -1807 -0 0 -1
1094.0909593808406 -313.36723854697311 -1799 0 -0 1
1094.0909593808406 -313.36723854697311 1799.0000000000002 -0 0 -1
1094.0909593808406 -313.36723854697311 1807.0000000000002 0 -0 1
1094.0909593808406 -288.36723854697311 -1807 -0 0 -1
1094.0909593808406 -288.36723854697311 -1799 0 -0 1
1094.0909593808406 -288.36723854697311 1799.0000000000002 -0 0 -1
1094.0909593808406 -288.36723854697311 1807.0000000000002 0 -0 1
1094.0909593808406 -263.36723854697311 -1807 -0 0 -1
1094.0909593808406 -263.36723854697311 -1799 0 -0 1
1094.0909593808406 -263.36723854697311 1799.0000000000002 -0 0 -1
1094.0909593808406 -263.36723854697311 1807.0000000000002 0 -0 1
1094.0909593808406 -238.36723854697311 -1807 -0 0 -1
1094.0909593808406 -238.36723854697311 -1799 0 -0 1
1094.0909593808406 -238.36723854697311 1799.0000000000002 -0 0 -1
1094.0909593808406 -238.36723854697311 1807.0000000000002 0 -0 1
1094.0909593808406 -213.36723854697311 -1807 -0 0 -1
1094.0909593808406 -213.36723854697311 -1799 0 -0 1
1094.0909593808406 -213.36723854697311 1799.0000000000002 -0 0 -1
1094.0909593808406 -213.36723854697311 1807.0000000000002 0 -0 1
1094.0909593808406 -188.36723854697311 -1807 -0 0 -1
1094.0909593808406 -188.36723854697311 -1799 0 -0 1
1094.0909593808406 -188.36723854697311 1799.0000000000002 -0 0 -1
1094.0909593808406 -188.36723854697311 1807.0000000000002 0 -0 1
1094.0909593808406 -163.36723854697311 -1807 -0 0 -1
1094.0909593808406 -163.36723854697311 -1799 0 -0 1
1094.0909593808406 -163.36723854697311 1799.0000000000002 -0 0 -1
1094.0909593808406 -163.36723854697311 1807.0000000000002 0 -0 1
1094.0909593808406 -138.36723854697311 -1807 -0 0 -1
1094.0909593808406 -138.36723854697311 -1799 0 -0 1
1094.0909593808406 -138.36723854697311 1799.0000000000002 -0 0 -1
1094.0909593808406 -138.36723854697311 1807.0000000000002 0 -0 1
1094.0909593808406 -113.36723854697311 -1807 -0 0 -1
1094.0909593808406 -113.36723854697311 -1799 0 -0 1
1094.0909593808406 -113.36723854697311 1799.0000000000002 -0 0 -1
1094.0909593808406 -113.36723854697311 1807.0000000000002 0 -0 1
1094.0909593808406 -88.367238546973113 -1807 -0 0 -1
1094.0909593808406 -88.367238546973113 -1799 0 -0 1
1094.0909593808406 -88.367238546973113 1799.0000000000002 -0 0 -1
1094.0909593808406 -88.367238546973113 1807.0000000000002 0 -0 1
1094.0909593808406 -63.367238546973113 -1807 -0 0 -1
1094.0909593808406 -63.367238546973113 -1799 0 -0 1
1094.0909593808406 -63.367238546973113 1799.0000000000002 -0 0 -1
1094.0909593808406 -63.367238546973113 1807.0000000000002 0 -0 1
1094.0909593808406 -38.367238546973113 -1807 -0 0 -1
1094.0909593808406 -38.367238546973113 -1799 0 -0 1
1094.0909593808406 -38.367238546973113 1799.0000000000002 -0 0 -1
1094.0909593808406 -38.367238546973113 1807.0000000000002 0 -0 1
1094.0909593808406 -13.367238546973113 -1807 -0 0 -1
1094.0909593808406 -13.367238546973113 -1799 0 -0 1
1094.0909593808406 -13.367238546973113 1799.0000000000002 -0 0 -1
1094.0909593808406 -13.367238546973113 1807.0000000000002 0 -0 1
1094.0909593808406 11.632761453026887 -1807 -0 0 -1
1094.0909593808406 11.632761453026887 -1799 0 -0 1
1094.0909593808406 11.632761453026887 1799.0000000000002 -0 0 -1
1094.0909593808406 11.632761453026887 1807.0000000000002 0 -0 1
1094.0909593808406 36.632761453026887 -1807 -0 0 -1
1094.0909593808406 36.632761453026887 -1799 0 -0 1
1094.0909593808406 36.632761453026887 1799.0000000000002 -0 0 -1
1094.0909593808406 36.632761453026887 1807.0000000000002 0 -0 1
1094.0909593808406 61.632761453026887 -1807 -0 0 -1
1094.0909593808406 61.632761453026887 -1799 0 -0 1
1094.0909593808406 61.632761453026887 1799.0000000000002 -0 0 -1
1094.0909593808406 61.632761453026887 1807.0000000000002 0 -0 1
1094.0909593808406 86.632761453026887 -1807 -0 0 -1
1094.0909593808406 86.632761453026887 -1799 0 -0 1
1094.0909593808406 86.632761453026887 1799.0000000000002 -0 0 -1
1094.0909593808406 86.632761453026887 1807.0000000000002 0 -0 1
1094.0909593808406 111.63276145302689 -1807 -0 0 -1
1094.0909593808406 111.63276145302689 -1799 0 -0 1
1094.0909593808406 111.63276145302689 1799.0000000000002 -0 0 -1
1094.0909593808406 111.63276145302689 1807.0000000000002 0 -0 1
1094.0909593808406 136.63276145302689 -1807 -0 0 -1
1094.0909593808406 136.63276145302689 -1799 0 -0 1
1094.0909593808406 136.63276145302689 1799.0000000000002 -0 0 -1
1094.0909593808406 136.63276145302689 1807.0000000000002 0 -0 1
1094.0909593808406 161.63276145302689 -1807 -0 0 -1
1094.0909593808406 161.63276145302689 -1799 0 -0 1
1094.0909593808406 161.63276145302689 1799.0000000000002 -0 0 -1
1094.0909593808406 161.63276145302689 1807.0000000000002 0 -0 1
1094.0909593808406 186.63276145302689 -1807 -0 0 -1
1094.0909593808406 186.63276145302689 -1799 0 -0 1
1094.0909593808406 186.63276145302689 1799.0000000000002 -0 0 -1
1094.0909593808406 186.63276145302689 1807.0000000000002 0 -0 1
1094.0909593808406 211.63276145302689 -1807 -0 0 -1
1094.0909593808406 211.63276145302689 -1799 0 -0 1
1094.0909593808406 211.63276145302689 1799.0000000000002 -0 0 -1
1094.0909593808406 211.63276145302689 1807.0000000000002 0 -0 1
1094.0909593808406 236.63276145302689 -1807 -0 0 -1
1094.0909593808406 236.63276145302689 -1799 0 -0 1
1094.0909593808406 236.63276145302689 1799.0000000000002 -0 0 -1
1094.0909593808406 236.63276145302689 1807.0000000000002 0 -0 1
1094.0909593808406 261.63276145302689 -1807 -0 0 -1
1094.0909593808406 261.63276145302689 -1799 0 -0 1
1094.0909593808406 261.63276145302689 1799.0000000000002 -0 0 -1
1094.0909593808406 261.63276145302689 1807.0000000000002 0 -0 1
1094.0909593808406 286.63276145302689 -1807 -0 0 -1
1094.0909593808406 286.63276145302689 -1799 0 -0 1
1094.0909593808406 286.63276145302689 1799.0000000000002 -0 0 -1
1094.0909593808406 286.63276145302689 1807.0000000000002 0 -0 1
1094.0909593808406 311.63276145302689 -1807 -0 0 -1
1094.0909593808406 311.63276145302689 -1799 0 -0 1
1094.0909593808406 311.63276145302689 1799.0000000000002 -0 0 -1
1094.0909593808406 311.63276145302689 1807.0000000000002 0 -0 1
1094.0909593808406 336.63276145302689 -1807 -0 0 -1
1094.0909593808406 336.63276145302689 -1799 0 -0 1
1094.0909593808406 336.63276145302689 1799.0000000000002 -0 0 -1
1094.0909593808406 336.63276145302689 1807.0000000000002 0 -0 1
1094.0909593808406 361.63276145302689 -1807 -0 0 -1
1094.0909593808406 361.63276145302689 -1799 0 -0 1
1094.0909593808406 361.63276145302689 1799.0000000000002 -0 0 -1
1094.0909593808406 361.63276145302689 1807.0000000000002 0 -0 1
1094.0909593808406 386.63276145302689 1799.0000000000002 -0 0 -1
1094.0909593808406 386.63276145302689 1807.0000000000002 0 -0 1
1094.0909593808406 411.63276145302689 1799.0000000000002 -0 0 -1
1094.0909593808406 411.63276145302689 1807.0000000000002 0 -0 1
1094.0909593808406 436.63276145302689 -1807 -0 0 -1
1094.0909593808406 436.63276145302689 -1799 0 -0 1
1094.0909593808406 436.63276145302689 1799.0000000000002 -0 0 -1
1094.0909593808406 436.63276145302689 1807.0000000000002 0 -0 1
1094.0909593808406 461.63276145302689 -1807 -0 0 -1
1094.0909593808406 461.63276145302689 -1799 0 -0 1
1094.0909593808406 461.63276145302689 1799.0000000000002 -0 0 -1
1094.0909593808406 461.63276145302689 1807.0000000000002 0 -0 1
1094.0909593808406 486.63276145302689 -1807 -0 0 -1
1094.0909593808406 486.63276145302689 -1799 0 -0 1
1094.0909593808406 486.63276145302689 1799.0000000000002 -0 0 -1
1094.0909593808406 486.63276145302689 1807.0000000000002 0 -0 1
1094.0909593808406 511.63276145302689 -1807 -0 0 -1
1094.0909593808406 511.63276145302689 -1799 0 -0 1
1094.0909593808406 511.63276145302689 1799.0000000000002 -0 0 -1
1094.0909593808406 511.63276145302689 1807.0000000000002 0 -0 1
1094.0909593808406 536.63276145302689 -1807 -0 0 -1
1094.0909593808406 536.63276145302689 -1799 0 -0 1
1094.0909593808406 536.63276145302689 1799.0000000000002 -0 0 -1
1094.0909593808406 536.63276145302689 1807.0000000000002 0 -0 1
1094.0909593808406 561.63276145302689 -1807 -0 0 -1
1094.0909593808406 561.63276145302689 -1799 0 -0 1
1094.0909593808406 561.63276145302689 1799.0000000000002 -0 0 -1
1094.0909593808406 561.63276145302689 1807.0000000000002 0 -0 1
1094.0909593808406 586.63276145302689 -1807 -0 0 -1
1094.0909593808406 586.63276145302689 -1799 0 -0 1
1094.0909593808406 586.63276145302689 1799.0000000000002 -0 0 -1
1094.0909593808406 586.63276145302689 1807.0000000000002 0 -0 1
1119.0909593808406 -613.36723844697315 -1815.0000001000033 -1.9116215605835299e-16 -1 4.2760165986582602e-32
1119.0909593808406 -613.36723844697315 -1790.0000001000033 -1.9116215605835299e-16 -1 4.2760165986582602e-32
1119.0909593808406 -613.36723844697315 -1765.0000001000033 -1.9116215605835299e-16 -1 4.2760165986582602e-32
1119.0909593808406 -613.36723844697315 -1740.0000001000033 -1.9116215605835299e-16 -1 4.2760165986582602e-32
1119.0909593808406 -613.36723844697315 -1715.0000001000033 -1.9116215605835299e-16 -1 4.2760165986582602e-32
1119.0909593808406 -613.36723844697315 -1690.0000001000033 -1.9116215605835299e-16 -1 4.2760165986582602e-32
1119.0909593808406 -613.36723844697315 -1665.0000001000033 -1.9116215605835299e-16 -1 4.2760165986582602e-32
1119.0909593808406 -613.36723844697315 -1640.0000001000033 -1.9116215605835299e-16 -1 4.2760165986582602e-32
1119.0909593808406 -613.36723844697315 -1615.0000001000033 -1.9116215605835299e-16 -1 4.2760165986582602e-32
1119.0909593808406 -613.36723844697315 -1590.0000001000033 -1.9116215605835299e-16 -1 4.2760165986582602e-32
1119.0909593808406 -613.36723844697315 -1565.0000001000033 -1.9116215605835299e-16 -1 4.2760165986582602e-32
1119.0909593808406 -613.36723844697315 -1540.0000001000033 -1.9116215605835299e-16 -1 4.2760165986582602e-32
1119.0909593808406 -613.36723844697315 -1515.0000001000033 -1.9116215605835299e-16 -1 4.2760165986582602e-32
1119.0909593808406 -613.36723844697315 -1490.0000001000033 -1.9116215605835299e-16 -1 4.2760165986582602e-32
1119.0909593808406 -613.36723844697315 -1465.0000001000033 -1.9116215605835299e-16 -1 4.2760165986582602e-32
1119.0909593808406 -613.36723844697315 -1440.0000001000033 -1.9116215605835299e-16 -1 4.2760165986582602e-32
1119.0909593808406 -613.36723844697315 -1415.0000001000033 -1.9116215605835299e-16 -1 4.2760165986582602e-32
1119.0909593808406 -613.36723844697315 -1390.0000001000033 -1.9116215605835299e-16 -1 4.2760165986582602e-32
1119.0909593808406 -613.36723844697315 -1365.0000001000033 -1.9116215605835299e-16 -1 4.2760165986582602e-32
1119.0909593808406 -613.36723844697315 -1340.0000001000033 -1.9116215605835299e-16 -1 4.2760165986582602e-32
1119.0909593808406 -613.36723844697315 -1315.0000001000033 -1.9116215605835299e-16 -1 4.2760165986582602e-32
1119.0909593808406 -613.36723844697315 -1290.0000001000033 -1.9116215605835299e-16 -1 4.2760165986582602e-32
1119.0909593808406 -613.36723844697315 -1265.0000001000033 -1.9116215605835299e-16 -1 4.2760165986582602e-32
1119.0909593808406 -613.36723844697315 -1240.0000001000033 -1.9116215605835299e-16 -1 4.2760165986582602e-32
1119.0909593808406 -613.36723844697315 -1215.0000001000033 -1.9116215605835299e-16 -1 4.2760165986582602e-32
1119.0909593808406 -613.36723844697315 -1190.0000001000033 -1.9116215605835299e-16 -1 4.2760165986582602e-32
1119.0909593808406 -613.36723844697315 -1165.0000001000033 -1.9116215605835299e-16 -1 4.2760165986582602e-32
1119.0909593808406 -613.36723844697315 -1140.0000001000033 -1.9116215605835299e-16 -1 4.2760165986582602e-32
1119.0909593808406 -613.36723844697315 -1115.0000001000033 -1.9116215605835299e-16 -1 4.2760165986582602e-32
1119.0909593808406 -613.36723844697315 -1090.0000001000033 -1.9116215605835299e-16 -1 4.2760165986582602e-32
1119.0909593808406 -613.36723844697315 -1065.0000001000033 -1.9116215605835299e-16 -1 4.2760165986582602e-32
1119.0909593808406 -613.36723844697315 -1040.0000001000033 -1.9116215605835299e-16 -1 4.2760165986582602e-32
1119.0909593808406 -613.36723844697315 -1015.0000001000033 -1.9116215605835299e-16 -1 4.2760165986582602e-32
1119.0909593808406 -613.36723844697315 -990.00000010000326 -1.9116215605835299e-16 -1 4.2760165986582602e-32
1119.0909593808406 -613.36723844697315 -965.00000010000326 -1.9116215605835299e-16 -1 4.2760165986582602e-32
1119.0909593808406 -613.36723844697315 -940.00000010000326 -1.9116215605835299e-16 -1 4.2760165986582602e-32
1119.0909593808406 -613.36723844697315 -915.00000010000326 -1.9116215605835299e-16 -1 4.2760165986582602e-32
1119.0909593808406 -613.36723844697315 -890.00000010000326 -1.9116215605835299e-16 -1 4.2760165986582602e-32
1119.0909593808406 -613.36723844697315 -865.00000010000326 -1.9116215605835299e-16 -1 4.2760165986582602e-32
1119.0909593808406 -613.36723844697315 -840.00000010000326 -1.9116215605835299e-16 -1 4.2760165986582602e-32
1119.0909593808406 -613.36723844697315 -815.00000010000326 -1.9116215605835299e-16 -1 4.2760165986582602e-32
1119.0909593808406 -613.36723844697315 -790.00000010000326 -1.9116215605835299e-16 -1 4.2760165986582602e-32
1119.0909593808406 -613.36723844697315 -765.00000010000326 -1.9116215605835299e-16 -1 4.2760165986582602e-32
1119.0909593808406 -613.36723844697315 -740.00000010000326 -1.9116215605835299e-16 -1 4.2760165986582602e-32
1119.0909593808406 -613.36723844697315 -715.00000010000326 -1.9116215605835299e-16 -1 4.2760165986582602e-32
1119.0909593808406 -613.36723844697315 -690.00000010000326 -1.9116215605835299e-16 -1 4.2760165986582602e-32
1119.0909593808406 -613.36723844697315 -665.00000010000326 -1.9116215605835299e-16 -1 4.2760165986582602e-32
1119.0909593808406 -613.36723844697315 -640.00000010000326 -1.9116215605835299e-16 -1 4.2760165986582602e-32
1119.0909593808406 -613.36723844697315 -615.00000010000326 -1.9116215605835299e-16 -1 4.2760165986582602e-32
1119.0909593808406 -613.36723844697315 -590.00000010000326 -1.9116215605835299e-16 -1 4.2760165986582602e-32
1119.0909593808406 -613.36723844697315 -565.00000010000326 -1.9116215605835299e-16 -1 4.2760165986582602e-32
1119.0909593808406 -613.36723844697315 -540.00000010000326 -1.9116215605835299e-16 -1 4.2760165986582602e-32
1119.0909593808406 -613.36723844697315 -415.00000010000326 -1.9116215605835299e-16 -1 4.2760165986582602e-32
1119.0909593808406 -613.36723844697315 -390.00000010000326 -1.9116215605835299e-16 -1 4.2760165986582602e-32
1119.0909593808406 -613.36723844697315 -365.00000010000326 -1.9116215605835299e-16 -1 4.2760165986582602e-32
1119.0909593808406 -613.36723844697315 -340.00000010000326 -1.9116215605835299e-16 -1 4.2760165986582602e-32
1119.0909593808406 -613.36723844697315 -315.00000010000326 -1.9116215605835299e-16 -1 4.2760165986582602e-32
1119.0909593808406 -613.36723844697315 -140.00000010000326 -1.9116215605835299e-16 -1 4.2760165986582602e-32
1119.0909593808406 -613.36723844697315 -115.00000010000326 -1.9116215605835299e-16 -1 4.2760165986582602e-32
1119.0909593808406 -613.36723844697315 -90.000000100003263 -1.9116215605835299e-16 -1 4.2760165986582602e-32
1119.0909593808406 -613.36723844697315 -65.000000100003263 -1.9116215605835299e-16 -1 4.2760165986582602e-32
1119.0909593808406 -613.36723844697315 -40.000000100003263 -1.9116215605835299e-16 -1 4.2760165986582602e-32
1119.0909593808406 -613.36723844697315 -15.000000100003263 -1.9116215605835299e-16 -1 4.2760165986582602e-32
1119.0909593808406 -613.36723844697315 9.9999998999967374 -1.9116215605835299e-16 -1 4.2760165986582602e-32
1119.0909593808406 -613.36723844697315 34.999999899996737 -1.9116215605835299e-16 -1 4.2760165986582602e-32
1119.0909593808406 -613.36723844697315 59.999999899996737 -1.9116215605835299e-16 -1 4.2760165986582602e-32
1119.0909593808406 -613.36723844697315 84.999999899996737 -1.9116215605835299e-16 -1 4.2760165986582602e-32
1119.0909593808406 -613.36723844697315 109.99999989999674 -1.9116215605835299e-16 -1 4.2760165986582602e-32
1119.0909593808406 -613.36723844697315 134.99999989999674 -1.9116215605835299e-16 -1 4.2760165986582602e-32
1119.0909593808406 -613.36723844697315 159.99999989999674 -1.9116215605835299e-16 -1 4.2760165986582602e-32
1119.0909593808406 -613.36723844697315 184.99999989999674 -1.9116215605835299e-16 -1 4.2760165986582602e-32
1119.0909593808406 -613.36723844697315 209.99999989999674 -1.9116215605835299e-16 -1 4.2760165986582602e-32
1119.0909593808406 -613.36723844697315 234.99999989999674 -1.9116215605835299e-16 -1 4.2760165986582602e-32
1119.0909593808406 -613.36723844697315 259.99999989999674 -1.9116215605835299e-16 -1 4.2760165986582602e-32
1119.0909593808406 -613.36723844697315 284.99999989999674 -1.9116215605835299e-16 -1 4.2760165986582602e-32
1119.0909593808406 -613.36723844697315 309.99999989999674 -1.9116215605835299e-16 -1 4.2760165986582602e-32
1119.0909593808406 -613.36723844697315 334.99999989999674 -1.9116215605835299e-16 -1 4.2760165986582602e-32
1119.0909593808406 -613.36723844697315 359.99999989999674 -1.9116215605835299e-16 -1 4.2760165986582602e-32
1119.0909593808406 -613.36723844697315 384.99999989999674 -1.9116215605835299e-16 -1 4.2760165986582602e-32
1119.0909593808406 -613.36723844697315 409.99999989999674 -1.9116215605835299e-16 -1 4.2760165986582602e-32
1119.0909593808406 -613.36723844697315 434.99999989999674 -1.9116215605835299e-16 -1 4.2760165986582602e-32
1119.0909593808406 -613.36723844697315 459.99999989999674 -1.9116215605835299e-16 -1 4.2760165986582602e-32
1119.0909593808406 -613.36723844697315 484.99999989999674 -1.9116215605835299e-16 -1 4.2760165986582602e-32
1119.0909593808406 -613.36723844697315 509.99999989999674 -1.9116215605835299e-16 -1 4.2760165986582602e-32
1119.0909593808406 -613.36723844697315 534.99999989999674 -1.9116215605835299e-16 -1 4.2760165986582602e-32
1119.0909593808406 -613.36723844697315 559.99999989999674 -1.9116215605835299e-16 -1 4.2760165986582602e-32
1119.0909593808406 -613.36723844697315 584.99999989999674 -1.9116215605835299e-16 -1 4.2760165986582602e-32
1119.0909593808406 -613.36723844697315 609.99999989999674 -1.9116215605835299e-16 -1 4.2760165986582602e-32
1119.0909593808406 -613.36723844697315 634.99999989999674 -1.9116215605835299e-16 -1 4.2760165986582602e-32
1119.0909593808406 -613.36723844697315 659.99999989999674 -1.9116215605835299e-16 -1 4.2760165986582602e-32
1119.0909593808406 -613.36723844697315 684.99999989999674 -1.9116215605835299e-16 -1 4.2760165986582602e-32
1119.0909593808406 -613.36723844697315 709.99999989999674 -1.9116215605835299e-16 -1 4.2760165986582602e-32
1119.0909593808406 -613.36723844697315 734.99999989999674 -1.9116215605835299e-16 -1 4.2760165986582602e-32
1119.0909593808406 -613.36723844697315 759.99999989999674 -1.9116215605835299e-16 -1 4.2760165986582602e-32
1119.0909593808406 -613.36723844697315 784.99999989999674 -1.9116215605835299e-16 -1 4.2760165986582602e-32
1119.0909593808406 -613.36723844697315 809.99999989999674 -1.9116215605835299e-16 -1 4.2760165986582602e-32
1119.0909593808406 -613.36723844697315 834.99999989999674 -1.9116215605835299e-16 -1 4.2760165986582602e-32
1119.0909593808406 -613.36723844697315 859.99999989999674 -1.9116215605835299e-16 -1 4.2760165986582602e-32
1119.0909593808406 -613.36723844697315 884.99999989999674 -1.9116215605835299e-16 -1 4.2760165986582602e-32
1119.0909593808406 -613.36723844697315 909.99999989999674 -1.9116215605835299e-16 -1 4.2760165986582602e-32
1119.0909593808406 -613.36723844697315 934.99999989999674 -1.9116215605835299e-16 -1 4.2760165986582602e-32
1119.0909593808406 -613.36723844697315 959.99999989999674 -1.9116215605835299e-16 -1 4.2760165986582602e-32
1119.0909593808406 -613.36723844697315 984.99999989999674 -1.9116215605835299e-16 -1 4.2760165986582602e-32
1119.0909593808406 -613.36723844697315 1009.9999998999967 -1.9116215605835299e-16 -1 4.2760165986582602e-32
1119.0909593808406 -613.36723844697315 1034.9999998999967 -1.9116215605835299e-16 -1 4.2760165986582602e-32
1119.0909593808406 -613.36723844697315 1059.9999998999967 -1.9116215605835299e-16 -1 4.2760165986582602e-32
1119.0909593808406 -613.36723844697315 1084.9999998999967 -1.9116215605835299e-16 -1 4.2760165986582602e-32
1119.0909593808406 -613.36723844697315 1109.9999998999967 -1.9116215605835299e-16 -1 4.2760165986582602e-32
1119.0909593808406 -613.36723844697315 1134.9999998999967 -1.9116215605835299e-16 -1 4.2760165986582602e-32
1119.0909593808406 -613.36723844697315 1159.9999998999967 -1.9116215605835299e-16 -1 4.2760165986582602e-32
1119.0909593808406 -613.36723844697315 1184.9999998999967 -1.9116215605835299e-16 -1 4.2760165986582602e-32
1119.0909593808406 -613.36723844697315 1209.9999998999967 -1.9116215605835299e-16 -1 4.2760165986582602e-32
1119.0909593808406 -613.36723844697315 1234.9999998999967 -1.9116215605835299e-16 -1 4.2760165986582602e-32
1119.0909593808406 -613.36723844697315 1259.9999998999967 -1.9116215605835299e-16 -1 4.2760165986582602e-32
1119.0909593808406 -613.36723844697315 1284.9999998999967 -1.9116215605835299e-16 -1 4.2760165986582602e-32
1119.0909593808406 -613.36723844697315 1309.9999998999967 -1.9116215605835299e-16 -1 4.2760165986582602e-32
1119.0909593808406 -613.36723844697315 1334.9999998999967 -1.9116215605835299e-16 -1 4.2760165986582602e-32
1119.0909593808406 -613.36723844697315 1359.9999998999967 -1.9116215605835299e-16 -1 4.2760165986582602e-32
1119.0909593808406 -613.36723844697315 1384.9999998999967 -1.9116215605835299e-16 -1 4.2760165986582602e-32
1119.0909593808406 -613.36723844697315 1409.9999998999967 -1.9116215605835299e-16 -1 4.2760165986582602e-32
1119.0909593808406 -613.36723844697315 1434.9999998999967 -1.9116215605835299e-16 -1 4.2760165986582602e-32
1119.0909593808406 -613.36723844697315 1459.9999998999967 -1.9116215605835299e-16 -1 4.2760165986582602e-32
1119.0909593808406 -613.36723844697315 1484.9999998999967 -1.9116215605835299e-16 -1 4.2760165986582602e-32
1119.0909593808406 -613.36723844697315 1509.9999998999967 -1.9116215605835299e-16 -1 4.2760165986582602e-32
1119.0909593808406 -613.36723844697315 1534.9999998999967 -1.9116215605835299e-16 -1 4.2760165986582602e-32
1119.0909593808406 -613.36723844697315 1559.9999998999967 -1.9116215605835299e-16 -1 4.2760165986582602e-32
1119.0909593808406 -613.36723844697315 1584.9999998999967 -1.9116215605835299e-16 -1 4.2760165986582602e-32
1119.0909593808406 -613.36723844697315 1609.9999998999967 -1.9116215605835299e-16 -1 4.2760165986582602e-32
1119.0909593808406 -613.36723844697315 1634.9999998999967 -1.9116215605835299e-16 -1 4.2760165986582602e-32
1119.0909593808406 -613.36723844697315 1659.9999998999967 -1.9116215605835299e-16 -1 4.2760165986582602e-32
1119.0909593808406 -613.36723844697315 1684.9999998999967 -1.9116215605835299e-16 -1 4.2760165986582602e-32
1119.0909593808406 -613.36723844697315 1709.9999998999967 -1.9116215605835299e-16 -1 4.2760165986582602e-32
1119.0909593808406 -613.36723844697315 1734.9999998999967 -1.9116215605835299e-16 -1 4.2760165986582602e-32
1119.0909593808406 -613.36723844697315 1759.9999998999967 -1.9116215605835299e-16 -1 4.2760165986582602e-32
1119.0909593808406 -613.36723844697315 1784.9999998999967 -1.9116215605835299e-16 -1 4.2760165986582602e-32
1119.0909593808406 -613.36723844697315 1809.9999998999967 -1.9116215605835299e-16 -1 4.2760165986582602e-32
1119.0909593808406 -613.36723844697315 1834.9999998999967 -1.9116215605835299e-16 -1 4.2760165986582602e-32
1119.0909593808406 -613.36723844697315 1859.9999998999967 -1.9116215605835299e-16 -1 4.2760165986582602e-32
1119.0909593808406 -606.09452989541433 1834.9999998999967 5.4803931879593198e-08 -0.99999999999999856 1.2151946739891201e-16
1119.0909593808406 -606.09452989541433 1859.9999998999967 5.4803931879593198e-08 -0.99999999999999856 1.2151946739891201e-16
1119.0909593808406 -605.36723844697315 -1815.0000001000033 1.9116215605835299e-16 1 -4.2760165986582602e-32
1119.0909593808406 -605.36723844697315 -1790.0000001000033 1.9116215605835299e-16 1 -4.2760165986582602e-32
1119.0909593808406 -605.36723844697315 -1765.0000001000033 1.9116215605835299e-16 1 -4.2760165986582602e-32
1119.0909593808406 -605.36723844697315 -1740.0000001000033 1.9116215605835299e-16 1 -4.2760165986582602e-32
1119.0909593808406 -605.36723844697315 -1715.0000001000033 1.9116215605835299e-16 1 -4.2760165986582602e-32
1119.0909593808406 -605.36723844697315 -1690.0000001000033 1.9116215605835299e-16 1 -4.2760165986582602e-32
1119.0909593808406 -605.36723844697315 -1665.0000001000033 1.9116215605835299e-16 1 -4.2760165986582602e-32
1119.0909593808406 -605.36723844697315 -1640.0000001000033 1.9116215605835299e-16 1 -4.2760165986582602e-32
1119.0909593808406 -605.36723844697315 -1615.0000001000033 1.9116215605835299e-16 1 -4.2760165986582602e-32
1119.0909593808406 -605.36723844697315 -1590.0000001000033 1.9116215605835299e-16 1 -4.2760165986582602e-32
1119.0909593808406 -605.36723844697315 -1565.0000001000033 1.9116215605835299e-16 1 -4.2760165986582602e-32
1119.0909593808406 -605.36723844697315 -1540.0000001000033 1.9116215605835299e-16 1 -4.2760165986582602e-32
1119.0909593808406 -605.36723844697315 -1515.0000001000033 1.9116215605835299e-16 1 -4.2760165986582602e-32
1119.0909593808406 -605.36723844697315 -1490.0000001000033 1.9116215605835299e-16 1 -4.2760165986582602e-32
1119.0909593808406 -605.36723844697315 -1465.0000001000033 1.9116215605835299e-16 1 -4.2760165986582602e-32
1119.0909593808406 -605.36723844697315 -1440.0000001000033 1.9116215605835299e-16 1 -4.2760165986582602e-32
1119.0909593808406 -605.36723844697315 -1415.0000001000033 1.9116215605835299e-16 1 -4.2760165986582602e-32
1119.0909593808406 -605.36723844697315 -1390.0000001000033 1.9116215605835299e-16 1 -4.2760165986582602e-32
1119.0909593808406 -605.36723844697315 -1365.0000001000033 1.9116215605835299e-16 1 -4.2760165986582602e-32
1119.0909593808406 -605.36723844697315 -1340.0000001000033 1.9116215605835299e-16 1 -4.2760165986582602e-32
1119.0909593808406 -605.36723844697315 -1315.0000001000033 1.9116215605835299e-16 1 -4.2760165986582602e-32
1119.0909593808406 -605.36723844697315 -1290.0000001000033 1.9116215605835299e-16 1 -4.2760165986582602e-32
1119.0909593808406 -605.36723844697315 -1265.0000001000033 1.9116215605835299e-16 1 -4.2760165986582602e-32
1119.0909593808406 -605.36723844697315 -1240.0000001000033 1.9116215605835299e-16 1 -4.2760165986582602e-32
1119.0909593808406 -605.36723844697315 -1215.0000001000033 1.9116215605835299e-16 1 -4.2760165986582602e-32
1119.0909593808406 -605.36723844697315 -1190.0000001000033 1.9116215605835299e-16 1 -4.2760165986582602e-32
1119.0909593808406 -605.36723844697315 -1165.0000001000033 1.9116215605835299e-16 1 -4.2760165986582602e-32
1119.0909593808406 -605.36723844697315 -1140.0000001000033 1.9116215605835299e-16 1 -4.2760165986582602e-32
1119.0909593808406 -605.36723844697315 -1115.0000001000033 1.9116215605835299e-16 1 -4.2760165986582602e-32
1119.0909593808406 -605.36723844697315 -1090.0000001000033 1.9116215605835299e-16 1 -4.2760165986582602e-32
1119.0909593808406 -605.36723844697315 -1065.0000001000033 1.9116215605835299e-16 1 -4.2760165986582602e-32
1119.0909593808406 -605.36723844697315 -1040.0000001000033 1.9116215605835299e-16 1 -4.2760165986582602e-32
1119.0909593808406 -605.36723844697315 -1015.0000001000033 1.9116215605835299e-16 1 -4.2760165986582602e-32
1119.0909593808406 -605.36723844697315 -990.00000010000326 1.9116215605835299e-16 1 -4.2760165986582602e-32
1119.0909593808406 -605.36723844697315 -965.00000010000326 1.9116215605835299e-16 1 -4.2760165986582602e-32
1119.0909593808406 -605.36723844697315 -940.00000010000326 1.9116215605835299e-16 1 -4.2760165986582602e-32
1119.0909593808406 -605.36723844697315 -915.00000010000326 1.9116215605835299e-16 1 -4.2760165986582602e-32
1119.0909593808406 -605.36723844697315 -890.00000010000326 1.9116215605835299e-16 1 -4.2760165986582602e-32
1119.0909593808406 -605.36723844697315 -865.00000010000326 1.9116215605835299e-16 1 -4.2760165986582602e-32
1119.0909593808406 -605.36723844697315 -840.00000010000326 1.9116215605835299e-16 1 -4.2760165986582602e-32
1119.0909593808406 -605.36723844697315 -815.00000010000326 1.9116215605835299e-16 1 -4.2760165986582602e-32
1119.0909593808406 -605.36723844697315 -790.00000010000326 1.9116215605835299e-16 1 -4.2760165986582602e-32
1119.0909593808406 -605.36723844697315 -765.00000010000326 1.9116215605835299e-16 1 -4.2760165986582602e-32
1119.0909593808406 -605.36723844697315 -740.00000010000326 1.9116215605835299e-16 1 -4.2760165986582602e-32
1119.0909593808406 -605.36723844697315 -715.00000010000326 1.9116215605835299e-16 1 -4.2760165986582602e-32
1119.0909593808406 -605.36723844697315 -690.00000010000326 1.9116215605835299e-16 1 -4.2760165986582602e-32
1119.0909593808406 -605.36723844697315 -665.00000010000326 1.9116215605835299e-16 1 -4.2760165986582602e-32
1119.0909593808406 -605.36723844697315 -640.00000010000326 1.9116215605835299e-16 1 -4.2760165986582602e-32
1119.0909593808406 -605.36723844697315 -615.00000010000326 1.9116215605835299e-16 1 -4.2760165986582602e-32
1119.0909593808406 -605.36723844697315 -590.00000010000326 1.9116215605835299e-16 1 -4.2760165986582602e-32
1119.0909593808406 -605.36723844697315 -565.00000010000326 1.9116215605835299e-16 1 -4.2760165986582602e-32
1119.0909593808406 -605.36723844697315 -540.00000010000326 1.9116215605835299e-16 1 -4.2760165986582602e-32
1119.0909593808406 -605.36723844697315 -415.00000010000326 1.9116215605835299e-16 1 -4.2760165986582602e-32
1119.0909593808406 -605.36723844697315 -390.00000010000326 1.9116215605835299e-16 1 -4.2760165986582602e-32
1119.0909593808406 -605.36723844697315 -365.00000010000326 1.9116215605835299e-16 1 -4.2760165986582602e-32
1119.0909593808406 -605.36723844697315 -340.00000010000326 1.9116215605835299e-16 1 -4.2760165986582602e-32
1119.0909593808406 -605.36723844697315 -315.00000010000326 1.9116215605835299e-16 1 -4.2760165986582602e-32
1119.0909593808406 -605.36723844697315 -140.00000010000326 1.9116215605835299e-16 1 -4.2760165986582602e-32
1119.0909593808406 -605.36723844697315 -115.00000010000326 1.9116215605835299e-16 1 -4.2760165986582602e-32
1119.0909593808406 -605.36723844697315 -90.000000100003263 1.9116215605835299e-16 1 -4.2760165986582602e-32
1119.0909593808406 -605.36723844697315 -65.000000100003263 1.9116215605835299e-16 1 -4.2760165986582602e-32
1119.0909593808406 -605.36723844697315 -40.000000100003263 1.9116215605835299e-16 1 -4.2760165986582602e-32
1119.0909593808406 -605.36723844697315 -15.000000100003263 1.9116215605835299e-16 1 -4.2760165986582602e-32
1119.0909593808406 -605.36723844697315 9.9999998999967374 1.9116215605835299e-16 1 -4.2760165986582602e-32
1119.0909593808406 -605.36723844697315 34.999999899996737 1.9116215605835299e-16 1 -4.2760165986582602e-32
1119.0909593808406 -605.36723844697315 59.999999899996737 1.9116215605835299e-16 1 -4.2760165986582602e-32
1119.0909593808406 -605.36723844697315 84.999999899996737 1.9116215605835299e-16 1 -4.2760165986582602e-32
1119.0909593808406 -605.36723844697315 109.99999989999674 1.9116215605835299e-16 1 -4.2760165986582602e-32
1119.0909593808406 -605.36723844697315 134.99999989999674 1.9116215605835299e-16 1 -4.2760165986582602e-32
1119.0909593808406 -605.36723844697315 159.99999989999674 1.9116215605835299e-16 1 -4.2760165986582602e-32
1119.0909593808406 -605.36723844697315 184.99999989999674 1.9116215605835299e-16 1 -4.2760165986582602e-32
1119.0909593808406 -605.36723844697315 209.99999989999674 1.9116215605835299e-16 1 -4.2760165986582602e-32
1119.0909593808406 -605.36723844697315 234.99999989999674 1.9116215605835299e-16 1 -4.2760165986582602e-32
1119.0909593808406 -605.36723844697315 259.99999989999674 1.9116215605835299e-16 1 -4.2760165986582602e-32
1119.0909593808406 -605.36723844697315 284.99999989999674 1.9116215605835299e-16 1 -4.2760165986582602e-32
1119.0909593808406 -605.36723844697315 309.99999989999674 1.9116215605835299e-16 1 -4.2760165986582602e-32
1119.0909593808406 -605.36723844697315 334.99999989999674 1.9116215605835299e-16 1 -4.2760165986582602e-32
1119.0909593808406 -605.36723844697315 359.99999989999674 1.9116215605835299e-16 1 -4.2760165986582602e-32
1119.0909593808406 -605.36723844697315 384.99999989999674 1.9116215605835299e-16 1 -4.2760165986582602e-32
1119.0909593808406 -605.36723844697315 409.99999989999674 1.9116215605835299e-16 1 -4.2760165986582602e-32
1119.0909593808406 -605.36723844697315 434.99999989999674 1.9116215605835299e-16 1 -4.2760165986582602e-32
1119.0909593808406 -605.36723844697315 459.99999989999674 1.9116215605835299e-16 1 -4.2760165986582602e-32
1119.0909593808406 -605.36723844697315 484.99999989999674 1.9116215605835299e-16 1 -4.2760165986582602e-32
1119.0909593808406 -605.36723844697315 509.99999989999674 1.9116215605835299e-16 1 -4.2760165986582602e-32
1119.0909593808406 -605.36723844697315 534.99999989999674 1.9116215605835299e-16 1 -4.2760165986582602e-32
1119.0909593808406 -605.36723844697315 559.99999989999674 1.9116215605835299e-16 1 -4.2760165986582602e-32
1119.0909593808406 -605.36723844697315 584.99999989999674 1.9116215605835299e-16 1 -4.2760165986582602e-32
1119.0909593808406 -605.36723844697315 609.99999989999674 1.9116215605835299e-16 1 -4.2760165986582602e-32
1119.0909593808406 -605.36723844697315 634.99999989999674 1.9116215605835299e-16 1 -4.2760165986582602e-32
1119.0909593808406 -605.36723844697315 659.99999989999674 1.9116215605835299e-16 1 -4.2760165986582602e-32
1119.0909593808406 -605.36723844697315 684.99999989999674 1.9116215605835299e-16 1 -4.2760165986582602e-32
1119.0909593808406 -605.36723844697315 709.99999989999674 1.9116215605835299e-16 1 -4.2760165986582602e-32
1119.0909593808406 -605.36723844697315 734.99999989999674 1.9116215605835299e-16 1 -4.2760165986582602e-32
1119.0909593808406 -605.36723844697315 759.99999989999674 1.9116215605835299e-16 1 -4.2760165986582602e-32
1119.0909593808406 -605.36723844697315 784.99999989999674 1.9116215605835299e-16 1 -4.2760165986582602e-32
1119.0909593808406 -605.36723844697315 809.99999989999674 1.9116215605835299e-16 1 -4.2760165986582602e-32
1119.0909593808406 -605.36723844697315 834.99999989999674 1.9116215605835299e-16 1 -4.2760165986582602e-32
1119.0909593808406 -605.36723844697315 859.99999989999674 1.9116215605835299e-16 1 -4.2760165986582602e-32
1119.0909593808406 -605.36723844697315 884.99999989999674 1.9116215605835299e-16 1 -4.2760165986582602e-32
1119.0909593808406 -605.36723844697315 909.99999989999674 1.9116215605835299e-16 1 -4.2760165986582602e-32
1119.0909593808406 -605.36723844697315 934.99999989999674 1.9116215605835299e-16 1 -4.2760165986582602e-32
1119.0909593808406 -605.36723844697315 959.99999989999674 1.9116215605835299e-16 1 -4.2760165986582602e-32
1119.0909593808406 -605.36723844697315 984.99999989999674 1.9116215605835299e-16 1 -4.2760165986582602e-32
1119.0909593808406 -605.36723844697315 1009.9999998999967 1.9116215605835299e-16 1 -4.2760165986582602e-32
1119.0909593808406 -605.36723844697315 1034.9999998999967 1.9116215605835299e-16 1 -4.2760165986582602e-32
1119.0909593808406 -605.36723844697315 1059.9999998999967 1.9116215605835299e-16 1 -4.2760165986582602e-32
1119.0909593808406 -605.36723844697315 1084.9999998999967 1.9116215605835299e-16 1 -4.2760165986582602e-32
1119.0909593808406 -605.36723844697315 1109.9999998999967 1.9116215605835299e-16 1 -4.2760165986582602e-32
1119.0909593808406 -605.36723844697315 1134.9999998999967 1.9116215605835299e-16 1 -4.2760165986582602e-32
1119.0909593808406 -605.36723844697315 1159.9999998999967 1.9116215605835299e-16 1 -4.2760165986582602e-32
1119.0909593808406 -605.36723844697315 1184.9999998999967 1.9116215605835299e-16 1 -4.2760165986582602e-32
1119.0909593808406 -605.36723844697315 1209.9999998999967 1.9116215605835299e-16 1 -4.2760165986582602e-32
1119.0909593808406 -605.36723844697315 1234.9999998999967 1.9116215605835299e-16 1 -4.2760165986582602e-32
1119.0909593808406 -605.36723844697315 1259.9999998999967 1.9116215605835299e-16 1 -4.2760165986582602e-32
1119.0909593808406 -605.36723844697315 1284.9999998999967 1.9116215605835299e-16 1 -4.2760165986582602e-32
1119.0909593808406 -605.36723844697315 1309.9999998999967 1.9116215605835299e-16 1 -4.2760165986582602e-32
1119.0909593808406 -605.36723844697315 1334.9999998999967 1.9116215605835299e-16 1 -4.2760165986582602e-32
1119.0909593808406 -605.36723844697315 1359.9999998999967 1.9116215605835299e-16 1 -4.2760165986582602e-32
1119.0909593808406 -605.36723844697315 1384.9999998999967 1.9116215605835299e-16 1 -4.2760165986582602e-32
1119.0909593808406 -605.36723844697315 1409.9999998999967 1.9116215605835299e-16 1 -4.2760165986582602e-32
1119.0909593808406 -605.36723844697315 1434.9999998999967 1.9116215605835299e-16 1 -4.2760165986582602e-32
1119.0909593808406 -605.36723844697315 1459.9999998999967 1.9116215605835299e-16 1 -4.2760165986582602e-32
1119.0909593808406 -605.36723844697315 1484.9999998999967 1.9116215605835299e-16 1 -4.2760165986582602e-32
1119.0909593808406 -605.36723844697315 1509.9999998999967 1.9116215605835299e-16 1 -4.2760165986582602e-32
1119.0909593808406 -605.36723844697315 1534.9999998999967 1.9116215605835299e-16 1 -4.2760165986582602e-32
1119.0909593808406 -605.36723844697315 1559.9999998999967 1.9116215605835299e-16 1 -4.2760165986582602e-32
1119.0909593808406 -605.36723844697315 1584.9999998999967 1.9116215605835299e-16 1 -4.2760165986582602e-32
1119.0909593808406 -605.36723844697315 1609.9999998999967 1.9116215605835299e-16 1 -4.2760165986582602e-32
1119.0909593808406 -605.36723844697315 1634.9999998999967 1.9116215605835299e-16 1 -4.2760165986582602e-32
1119.0909593808406 -605.36723844697315 1659.9999998999967 1.9116215605835299e-16 1 -4.2760165986582602e-32
1119.0909593808406 -605.36723844697315 1684.9999998999967 1.9116215605835299e-16 1 -4.2760165986582602e-32
1119.0909593808406 -605.36723844697315 1709.9999998999967 1.9116215605835299e-16 1 -4.2760165986582602e-32
1119.0909593808406 -605.36723844697315 1734.9999998999967 1.9116215605835299e-16 1 -4.2760165986582602e-32
1119.0909593808406 -605.36723844697315 1759.9999998999967 1.9116215605835299e-16 1 -4.2760165986582602e-32
1119.0909593808406 -605.36723844697315 1784.9999998999967 1.9116215605835299e-16 1 -4.2760165986582602e-32
1119.0909593808406 -605.36723844697315 1809.9999998999967 1.9116215605835299e-16 1 -4.2760165986582602e-32
1119.0909593808406 -605.36723844697315 1834.9999998999967 1.9116215605835299e-16 1 -4.2760165986582602e-32
1119.0909593808406 -605.36723844697315 1859.9999998999967 1.9116215605835299e-16 1 -4.2760165986582602e-32
1119.0909593808406 -605.25578227815083 -1815.0000001000033 -1.9160924523200099e-16 -0.99380799062105618 0.11111110555538045
1119.0909593808406 -604.67765380498599 1809.9999998999967 5.0490021838341993e-08 -0.92128466164250811 -0.38888889444447616
1119.0909593808406 -598.09452989541433 1834.9999998999967 -5.4803931879532066e-08 0.99999999999999856 -1.2151946739891201e-16
1119.0909593808406 -598.09452989541433 1859.9999998999967 -5.4803931879532066e-08 0.99999999999999856 -1.2151946739891201e-16
1119.0909593808406 -597.16519743851688 -1815.0000001000033 1.8890767078768917e-16 0.97979589915457233 -0.19999998999970736
1119.0909593808406 -595.235958225952 1809.9999998999967 -3.9137835174906963e-08 0.71414283305286175 0.70000000999945045
1119.0909593808406 -588.36723854697311 -1807.0501256389839 1.9280310301513755e-17 0.10000001000002756 -0.99498743610157925
1119.0909593808406 -588.36723854697311 -1799.0277992499525 -1.0711283500841179e-17 -0.055555561111127486 0.99845559722484778
1119.0909593808406 -588.36723854697311 1799.0020659520867 8.303059090531436e-10 -0.015150480642115723 -0.99988522488149256
1119.0909593808406 -588.36723854697311 1807.0037191919675 -1.4945506362870134e-09 0.027270865155650553 0.99962808079488352
1119.0909593808406 -563.36723854697311 -1807 -0 0 -1
1119.0909593808406 -563.36723854697311 -1799 0 -0 1
1119.0909593808406 -563.36723854697311 1799.0000000000002 -0 0 -1
1119.0909593808406 -563.36723854697311 1807.0000000000002 0 -0 1
1119.0909593808406 -538.36723854697311 -1807 -0 0 -1
1119.0909593808406 -538.36723854697311 -1799 0 -0 1
1119.0909593808406 -538.36723854697311 1799.0000000000002 -0 0 -1
1119.0909593808406 -538.36723854697311 1807.0000000000002 0 -0 1
1119.0909593808406 -513.36723854697311 -1807 -0 0 -1
1119.0909593808406 -513.36723854697311 -1799 0 -0 1
1119.0909593808406 -513.36723854697311 1799.0000000000002 -0 0 -1
1119.0909593808406 -513.36723854697311 1807.0000000000002 0 -0 1
1119.0909593808406 -488.36723854697311 -1807 -0 0 -1
1119.0909593808406 -488.36723854697311 -1799 0 -0 1
1119.0909593808406 -488.36723854697311 1799.0000000000002 -0 0 -1
1119.0909593808406 -488.36723854697311 1807.0000000000002 0 -0 1
1119.0909593808406 -463.36723854697311 1799.0000000000002 -0 0 -1
1119.0909593808406 -463.36723854697311 1807.0000000000002 0 -0 1
1119.0909593808406 -438.36723854697311 1799.0000000000002 -0 0 -1
1119.0909593808406 -438.36723854697311 1807.0000000000002 0 -0 1
1119.0909593808406 -413.36723854697311 1799.0000000000002 -0 0 -1
1119.0909593808406 -413.36723854697311 1807.0000000000002 0 -0 1
1119.0909593808406 -388.36723854697311 1799.0000000000002 -0 0 -1
1119.0909593808406 -388.36723854697311 1807.0000000000002 0 -0 1
1119.0909593808406 -363.36723854697311 1799.0000000000002 -0 0 -1
1119.0909593808406 -363.36723854697311 1807.0000000000002 0 -0 1
1119.0909593808406 -338.36723854697311 -1807 -0 0 -1
1119.0909593808406 -338.36723854697311 -1799 0 -0 1
1119.0909593808406 -338.36723854697311 1799.0000000000002 -0 0 -1
1119.0909593808406 -338.36723854697311 1807.0000000000002 0 -0 1
1119.0909593808406 -313.36723854697311 -1807 -0 0 -1
1119.0909593808406 -313.36723854697311 -1799 0 -0 1
1119.0909593808406 -313.36723854697311 1799.0000000000002 -0 0 -1
1119.0909593808406 -313.36723854697311 1807.0000000000002 0 -0 1
1119.0909593808406 -288.36723854697311 -1807 -0 0 -1
1119.0909593808406 -288.36723854697311 -1799 0 -0 1
1119.0909593808406 -288.36723854697311 1799.0000000000002 -0 0 -1
1119.0909593808406 -288.36723854697311 1807.0000000000002 0 -0 1
1119.0909593808406 -263.36723854697311 -1807 -0 0 -1
1119.0909593808406 -263.36723854697311 -1799 0 -0 1
1119.0909593808406 -263.36723854697311 1799.0000000000002 -0 0 -1
1119.0909593808406 -263.36723854697311 1807.0000000000002 0 -0 1
1119.0909593808406 -238.36723854697311 -1807 -0 0 -1
1119.0909593808406 -238.36723854697311 -1799 0 -0 1
1119.0909593808406 -238.36723854697311 1799.0000000000002 -0 0 -1
1119.0909593808406 -238.36723854697311 1807.0000000000002 0 -0 1
1119.0909593808406 -213.36723854697311 -1807 -0 0 -1
1119.0909593808406 -213.36723854697311 -1799 0 -0 1
1119.0909593808406 -213.36723854697311 1799.0000000000002 -0 0 -1
1119.0909593808406 -213.36723854697311 1807.0000000000002 0 -0 1
1119.0909593808406 -188.36723854697311 -1807 -0 0 -1
1119.0909593808406 -188.36723854697311 -1799 0 -0 1
1119.0909593808406 -188.36723854697311 1799.0000000000002 -0 0 -1
1119.0909593808406 -188.36723854697311 1807.0000000000002 0 -0 1
1119.0909593808406 -163.36723854697311 -1807 -0 0 -1
1119.0909593808406 -163.36723854697311 -1799 0 -0 1
1119.0909593808406 -163.36723854697311 1799.0000000000002 -0 0 -1
1119.0909593808406 -163.36723854697311 1807.0000000000002 0 -0 1
1119.0909593808406 -138.36723854697311 -1807 -0 0 -1
1119.0909593808406 -138.36723854697311 -1799 0 -0 1
1119.0909593808406 -138.36723854697311 1799.0000000000002 -0 0 -1
1119.0909593808406 -138.36723854697311 1807.0000000000002 0 -0 1
1119.0909593808406 -113.36723854697311 -1807 -0 0 -1
1119.0909593808406 -113.36723854697311 -1799 0 -0 1
1119.0909593808406 -113.36723854697311 1799.0000000000002 -0 0 -1
1119.0909593808406 -113.36723854697311 1807.0000000000002 0 -0 1
1119.0909593808406 -88.367238546973113 -1807 -0 0 -1
1119.0909593808406 -88.367238546973113 -1799 0 -0 1
1119.0909593808406 -88.367238546973113 1799.0000000000002 -0 0 -1
1119.0909593808406 -88.367238546973113 1807.0000000000002 0 -0 1
1119.0909593808406 -63.367238546973113 -1807 -0 0 -1
1119.0909593808406 -63.367238546973113 -1799 0 -0 1
1119.0909593808406 -63.367238546973113 1799.0000000000002 -0 0 -1
1119.0909593808406 -63.367238546973113 1807.0000000000002 0 -0 1
1119.0909593808406 -38.367238546973113 -1807 -0 0 -1
1119.0909593808406 -38.367238546973113 -1799 0 -0 1
1119.0909593808406 -38.367238546973113 1799.0000000000002 -0 0 -1
1119.0909593808406 -38.367238546973113 1807.0000000000002 0 -0 1
1119.0909593808406 -13.367238546973113 -1807 -0 0 -1
1119.0909593808406 -13.367238546973113 -1799 0 -0 1
1119.0909593808406 -13.367238546973113 1799.0000000000002 -0 0 -1
1119.0909593808406 -13.367238546973113 1807.0000000000002 0 -0 1
1119.0909593808406 11.632761453026887 -1807 -0 0 -1
1119.0909593808406 11.632761453026887 -1799 0 -0 1
1119.0909593808406 11.632761453026887 1799.0000000000002 -0 0 -1
1119.0909593808406 11.632761453026887 1807.0000000000002 0 -0 1
1119.0909593808406 36.632761453026887 -1807 -0 0 -1
1119.0909593808406 36.632761453026887 -1799 0 -0 1
1119.0909593808406 36.632761453026887 1799.0000000000002 -0 0 -1
1119.0909593808406 36.632761453026887 1807.0000000000002 0 -0 1
1119.0909593808406 61.632761453026887 -1807 -0 0 -1
1119.0909593808406 61.632761453026887 -1799 0 -0 1
1119.0909593808406 61.632761453026887 1799.0000000000002 -0 0 -1
1119.0909593808406 61.632761453026887 1807.0000000000002 0 -0 1
1119.0909593808406 86.632761453026887 -1807 -0 0 -1
1119.0909593808406 86.632761453026887 -1799 0 -0 1
1119.0909593808406 86.632761453026887 1799.0000000000002 -0 0 -1
1119.0909593808406 86.632761453026887 1807.0000000000002 0 -0 1
1119.0909593808406 111.63276145302689 -1807 -0 0 -1
1119.0909593808406 111.63276145302689 -1799 0 -0 1
1119.0909593808406 111.63276145302689 1799.0000000000002 -0 0 -1
1119.0909593808406 111.63276145302689 1807.0000000000002 0 -0 1
1119.0909593808406 136.63276145302689 -1807 -0 0 -1
1119.0909593808406 136.63276145302689 -1799 0 -0 1
1119.0909593808406 136.63276145302689 1799.0000000000002 -0 0 -1
1119.0909593808406 136.63276145302689 1807.0000000000002 0 -0 1
1119.0909593808406 161.63276145302689 -1807 -0 0 -1
1119.0909593808406 161.63276145302689 -1799 0 -0 1
1119.0909593808406 161.63276145302689 1799.0000000000002 -0 0 -1
1119.0909593808406 161.63276145302689 1807.0000000000002 0 -0 1
1119.0909593808406 186.63276145302689 -1807 -0 0 -1
1119.0909593808406 186.63276145302689 -1799 0 -0 1
1119.0909593808406 186.63276145302689 1799.0000000000002 -0 0 -1
1119.0909593808406 186.63276145302689 1807.0000000000002 0 -0 1
1119.0909593808406 211.63276145302689 -1807 -0 0 -1
1119.0909593808406 211.63276145302689 -1799 0 -0 1
1119.0909593808406 211.63276145302689 1799.0000000000002 -0 0 -1
1119.0909593808406 211.63276145302689 1807.0000000000002 0 -0 1
1119.0909593808406 236.63276145302689 -1807 -0 0 -1
1119.0909593808406 236.63276145302689 -1799 0 -0 1
1119.0909593808406 236.63276145302689 1799.0000000000002 -0 0 -1
1119.0909593808406 236.63276145302689 1807.0000000000002 0 -0 1
1119.0909593808406 261.63276145302689 -1807 -0 0 -1
1119.0909593808406 261.63276145302689 -1799 0 -0 1
1119.0909593808406 261.63276145302689 1799.0000000000002 -0 0 -1
