ply
format ascii 1.0
comment Written with hapPLY (https://github.com/nmwsharp/happly)
element vertex 499
property double x
property double y
property double z
property double nx
property double ny
property double nz
end_header
744.09095938084067 -613.36723844697303 1529.9999998999967 -1.9116215605835299e-16 -1 4.2760165986582602e-32
744.09095938084067 -613.36723844697303 1564.9999998999967 -1.9116215605835299e-16 -1 4.2760165986582602e-32
744.09095938084067 -613.36723844697303 1599.9999998999967 -1.9116215605835299e-16 -1 4.2760165986582602e-32
744.09095938084067 -613.36723844697303 1634.9999998999967 -1.9116215605835299e-16 -1 4.2760165986582602e-32
744.09095938084067 -613.36723844697303 1669.9999998999967 -1.9116215605835299e-16 -1 4.2760165986582602e-32
744.09095938084067 -613.36723844697303 1704.9999998999967 -1.9116215605835299e-16 -1 4.2760165986582602e-32
744.09095938084067 -613.36723844697303 1739.9999998999967 -1.9116215605835299e-16 -1 4.2760165986582602e-32
744.09095938084067 -613.36723844697303 1774.9999998999967 -1.9116215605835299e-16 -1 4.2760165986582602e-32
744.09095938084067 -613.36723844697303 1809.9999998999967 -1.9116215605835299e-16 -1 4.2760165986582602e-32
744.09095938084067 -613.36723844697303 1844.9999998999967 -1.9116215605835299e-16 -1 4.2760165986582602e-32
744.09095938084067 -606.09455044688877 1844.9999998999967 5.4803931879593198e-08 -0.99999999999999856 1.2151946739891201e-16
744.09095938084067 -605.36723844697303 -1830.0000001000033 1.9116215605835299e-16 1 -4.2760165986582602e-32
744.09095938084067 -605.36723844697303 -1795.0000001000033 1.9116215605835299e-16 1 -4.2760165986582602e-32
744.09095938084067 -605.36723844697303 -1760.0000001000033 1.9116215605835299e-16 1 -4.2760165986582602e-32
744.09095938084067 -605.36723844697303 -1725.0000001000033 1.9116215605835299e-16 1 -4.2760165986582602e-32
744.09095938084067 -605.36723844697303 -1690.0000001000033 1.9116215605835299e-16 1 -4.2760165986582602e-32
744.09095938084067 -605.36723844697303 -1655.0000001000033 1.9116215605835299e-16 1 -4.2760165986582602e-32
744.09095938084067 -605.36723844697303 -1620.0000001000033 1.9116215605835299e-16 1 -4.2760165986582602e-32
744.09095938084067 -605.36723844697303 -1585.0000001000033 1.9116215605835299e-16 1 -4.2760165986582602e-32
744.09095938084067 -605.36723844697303 -1550.0000001000033 1.9116215605835299e-16 1 -4.2760165986582602e-32
744.09095938084067 -605.36723844697303 -1515.0000001000033 1.9116215605835299e-16 1 -4.2760165986582602e-32
744.09095938084067 -605.36723844697303 -1480.0000001000033 1.9116215605835299e-16 1 -4.2760165986582602e-32
744.09095938084067 -605.36723844697303 -535.00000010000326 1.9116215605835299e-16 1 -4.2760165986582602e-32
744.09095938084067 -605.36723844697303 -500.00000010000326 1.9116215605835299e-16 1 -4.2760165986582602e-32
744.09095938084067 -605.36723844697303 -465.00000010000326 1.9116215605835299e-16 1 -4.2760165986582602e-32
744.09095938084067 -605.36723844697303 -430.00000010000326 1.9116215605835299e-16 1 -4.2760165986582602e-32
744.09095938084067 -605.36723844697303 -395.00000010000326 1.9116215605835299e-16 1 -4.2760165986582602e-32
744.09095938084067 -605.36723844697303 -360.00000010000326 1.9116215605835299e-16 1 -4.2760165986582602e-32
744.09095938084067 -605.36723844697303 -325.00000010000326 1.9116215605835299e-16 1 -4.2760165986582602e-32
744.09095938084067 -605.36723844697303 -290.00000010000326 1.9116215605835299e-16 1 -4.2760165986582602e-32
744.09095938084067 -605.36723844697303 -255.00000010000326 1.9116215605835299e-16 1 -4.2760165986582602e-32
744.09095938084067 -605.36723844697303 -220.00000010000326 1.9116215605835299e-16 1 -4.2760165986582602e-32
744.09095938084067 -605.36723844697303 -185.00000010000326 1.9116215605835299e-16 1 -4.2760165986582602e-32
744.09095938084067 -605.36723844697303 -150.00000010000326 1.9116215605835299e-16 1 -4.2760165986582602e-32
744.09095938084067 -605.36723844697303 -115.00000010000326 1.9116215605835299e-16 1 -4.2760165986582602e-32
744.09095938084067 -605.36723844697303 -80.000000100003263 1.9116215605835299e-16 1 -4.2760165986582602e-32
744.09095938084067 -605.36723844697303 -45.000000100003263 1.9116215605835299e-16 1 -4.2760165986582602e-32
744.09095938084067 -605.36723844697303 -10.000000100003263 1.9116215605835299e-16 1 -4.2760165986582602e-32
744.09095938084067 -605.36723844697303 24.999999899996737 1.9116215605835299e-16 1 -4.2760165986582602e-32
744.09095938084067 -605.36723844697303 59.999999899996737 1.9116215605835299e-16 1 -4.2760165986582602e-32
744.09095938084067 -605.36723844697303 94.999999899996737 1.9116215605835299e-16 1 -4.2760165986582602e-32
744.09095938084067 -605.36723844697303 129.99999989999674 1.9116215605835299e-16 1 -4.2760165986582602e-32
744.09095938084067 -605.36723844697303 164.99999989999674 1.9116215605835299e-16 1 -4.2760165986582602e-32
744.09095938084067 -605.36723844697303 199.99999989999674 1.9116215605835299e-16 1 -4.2760165986582602e-32
744.09095938084067 -605.36723844697303 234.99999989999674 1.9116215605835299e-16 1 -4.2760165986582602e-32
744.09095938084067 -605.36723844697303 269.99999989999674 1.9116215605835299e-16 1 -4.2760165986582602e-32
744.09095938084067 -605.36723844697303 304.99999989999674 1.9116215605835299e-16 1 -4.2760165986582602e-32
744.09095938084067 -605.36723844697303 339.99999989999674 1.9116215605835299e-16 1 -4.2760165986582602e-32
744.09095938084067 -605.36723844697303 374.99999989999674 1.9116215605835299e-16 1 -4.2760165986582602e-32
744.09095938084067 -605.36723844697303 409.99999989999674 1.9116215605835299e-16 1 -4.2760165986582602e-32
744.09095938084067 -605.36723844697303 1389.9999998999967 1.9116215605835299e-16 1 -4.2760165986582602e-32
744.09095938084067 -605.36723844697303 1424.9999998999967 1.9116215605835299e-16 1 -4.2760165986582602e-32
744.09095938084067 -605.36723844697303 1459.9999998999967 1.9116215605835299e-16 1 -4.2760165986582602e-32
744.09095938084067 -605.36723844697303 1494.9999998999967 1.9116215605835299e-16 1 -4.2760165986582602e-32
744.09095938084067 -605.36723844697303 1529.9999998999967 1.9116215605835299e-16 1 -4.2760165986582602e-32
744.09095938084067 -605.36723844697303 1564.9999998999967 1.9116215605835299e-16 1 -4.2760165986582602e-32
744.09095938084067 -605.36723844697303 1599.9999998999967 1.9116215605835299e-16 1 -4.2760165986582602e-32
744.09095938084067 -605.36723844697303 1634.9999998999967 1.9116215605835299e-16 1 -4.2760165986582602e-32
744.09095938084067 -605.36723844697303 1669.9999998999967 1.9116215605835299e-16 1 -4.2760165986582602e-32
744.09095938084067 -605.36723844697303 1704.9999998999967 1.9116215605835299e-16 1 -4.2760165986582602e-32
744.09095938084067 -605.36723844697303 1739.9999998999967 1.9116215605835299e-16 1 -4.2760165986582602e-32
744.09095938084067 -605.36723844697303 1774.9999998999967 1.9116215605835299e-16 1 -4.2760165986582602e-32
744.09095938084067 -605.36723844697303 1809.9999998999967 1.9116215605835299e-16 1 -4.2760165986582602e-32
744.09095938084067 -605.36723844697303 1844.9999998999967 1.9116215605835299e-16 1 -4.2760165986582602e-32
744.09095938084067 -604.67767435642838 1809.9999998999967 5.049002183832723e-08 -0.92128466164223866 -0.3888888944451141
744.09095938084067 -598.09455044688877 1844.9999998999967 -5.4803931879532066e-08 0.99999999999999856 -1.2151946739891201e-16
744.09095938084067 -597.36723844697269 -1830.0000001000033 1.9123903639374096e-16 1 -2.7137105751913901e-16
744.09095938084067 -595.23597877735199 1809.9999998999967 -3.9137835174707004e-08 0.714142833049213 0.70000001000317291
744.09095938084067 -578.36723854697311 -1807 -0 0 -1
744.09095938084067 -578.36723854697311 -1799 0 -0 1
744.09095938084067 -578.36723854697311 1799.0000000000002 -0 0 -1
744.09095938084067 -578.36723854697311 1807.0000000000002 0 -0 1
744.09095938084067 -543.36723854697311 -1807 -0 0 -1
744.09095938084067 -543.36723854697311 -1799 0 -0 1
744.09095938084067 -543.36723854697311 1799.0000000000002 -0 0 -1
744.09095938084067 -543.36723854697311 1807.0000000000002 0 -0 1
744.09095938084067 -508.36723854697311 -1807 -0 0 -1
744.09095938084067 -508.36723854697311 -1799 0 -0 1
744.09095938084067 -508.36723854697311 1799.0000000000002 -0 0 -1
744.09095938084067 -508.36723854697311 1807.0000000000002 0 -0 1
744.09095938084067 -473.36723854697311 -1807 -0 0 -1
744.09095938084067 -473.36723854697311 -1799 0 -0 1
744.09095938084067 -473.36723854697311 1799.0000000000002 -0 0 -1
744.09095938084067 -473.36723854697311 1807.0000000000002 0 -0 1
744.09095938084067 -438.36723854697311 -1807 -0 0 -1
744.09095938084067 -438.36723854697311 -1799 0 -0 1
744.09095938084067 -438.36723854697311 1799.0000000000002 -0 0 -1
744.09095938084067 -438.36723854697311 1807.0000000000002 0 -0 1
744.09095938084067 -403.36723854697311 -1807 -0 0 -1
744.09095938084067 -403.36723854697311 -1799 0 -0 1
744.09095938084067 -403.36723854697311 1799.0000000000002 -0 0 -1
744.09095938084067 -403.36723854697311 1807.0000000000002 0 -0 1
744.09095938084067 -368.36723854697311 -1807 -0 0 -1
744.09095938084067 -368.36723854697311 -1799 0 -0 1
744.09095938084067 -368.36723854697311 1799.0000000000002 -0 0 -1
744.09095938084067 -368.36723854697311 1807.0000000000002 0 -0 1
744.09095938084067 -362.6202730253699 -1830.0000001000033 7.0691748179819918e-18 -1 5.1317082433770156e-49
744.09095938084067 -362.6202730253699 -1795.0000001000033 7.0691748179819918e-18 -1 5.1317082433770156e-49
744.09095938084067 -362.6202730253699 -1760.0000001000033 7.0691748179819918e-18 -1 5.1317082433770156e-49
744.09095938084067 -356.43655048287263 1739.9999998999967 5.4803931799281882e-08 -0.99999999999999856 1.2956211103205295e-31
744.09095938084067 -356.43655048287263 1774.9999998999967 5.4803931799281882e-08 -0.99999999999999856 1.2956211103205295e-31
744.09095938084067 -356.43655048287263 1809.9999998999967 5.4803931799281882e-08 -0.99999999999999856 1.2956211103205295e-31
744.09095938084067 -352.6202730253699 -1830.0000001000033 -7.0691748179819918e-18 1 -5.1317082433770156e-49
744.09095938084067 -352.6202730253699 -1795.0000001000033 -7.0691748179819918e-18 1 -5.1317082433770156e-49
744.09095938084067 -352.6202730253699 -1760.0000001000033 -7.0691748179819918e-18 1 -5.1317082433770156e-49
744.09095938084067 -346.43655048287258 1739.9999998999967 -5.4803931799281882e-08 0.99999999999999856 -1.2956211103205295e-31
744.09095938084067 -346.43655048287258 1774.9999998999967 -5.4803931799281882e-08 0.99999999999999856 -1.2956211103205295e-31
744.09095938084067 -346.43655048287258 1809.9999998999967 -5.4803931799281882e-08 0.99999999999999856 -1.2956211103205295e-31
744.09095938084067 347.3797269746301 -1830.0000001000033 2.3964705287649797e-16 -1 5.4738221262688167e-48
744.09095938084067 347.3797269746301 -1795.0000001000033 2.3964705287649797e-16 -1 5.4738221262688167e-48
744.09095938084067 347.3797269746301 -1760.0000001000033 2.3964705287649797e-16 -1 5.4738221262688167e-48
744.09095938084067 353.56344951712833 1739.9999998999967 5.4803932120906413e-08 -0.99999999999999856 -7.0687992761825006e-40
744.09095938084067 353.56344951712833 1774.9999998999967 5.4803932120906413e-08 -0.99999999999999856 -7.0687992761825006e-40
744.09095938084067 353.56344951712833 1809.9999998999967 5.4803932120906413e-08 -0.99999999999999856 -7.0687992761825006e-40
744.09095938084067 357.3797269746301 -1830.0000001000033 -2.3964705287649797e-16 1 -5.4738221262688167e-48
744.09095938084067 357.3797269746301 -1795.0000001000033 -2.3964705287649797e-16 1 -5.4738221262688167e-48
744.09095938084067 357.3797269746301 -1760.0000001000033 -2.3964705287649797e-16 1 -5.4738221262688167e-48
744.09095938084067 363.56344951712845 1739.9999998999967 -5.4803932120906413e-08 0.99999999999999856 7.0687992761825006e-40
744.09095938084067 363.56344951712845 1774.9999998999967 -5.4803932120906413e-08 0.99999999999999856 7.0687992761825006e-40
744.09095938084067 363.56344951712845 1809.9999998999967 -5.4803932120906413e-08 0.99999999999999856 7.0687992761825006e-40
744.09095938084067 366.63276145302689 -1807 -0 0 -1
744.09095938084067 366.63276145302689 -1799 0 -0 1
744.09095938084067 366.63276145302689 1799.0000000000002 -0 0 -1
744.09095938084067 366.63276145302689 1807.0000000000002 0 -0 1
744.09095938084067 401.63276145302689 -1807 -0 0 -1
744.09095938084067 401.63276145302689 -1799 0 -0 1
744.09095938084067 401.63276145302689 1799.0000000000002 -0 0 -1
744.09095938084067 401.63276145302689 1807.0000000000002 0 -0 1
744.09095938084067 436.63276145302689 -1807 -0 0 -1
744.09095938084067 436.63276145302689 -1799 0 -0 1
744.09095938084067 436.63276145302689 1799.0000000000002 -0 0 -1
744.09095938084067 436.63276145302689 1807.0000000000002 0 -0 1
744.09095938084067 471.63276145302689 -1807 -0 0 -1
744.09095938084067 471.63276145302689 -1799 0 -0 1
744.09095938084067 471.63276145302689 1799.0000000000002 -0 0 -1
744.09095938084067 471.63276145302689 1807.0000000000002 0 -0 1
744.09095938084067 506.63276145302689 -1807 -0 0 -1
744.09095938084067 506.63276145302689 -1799 0 -0 1
744.09095938084067 506.63276145302689 1799.0000000000002 -0 0 -1
744.09095938084067 506.63276145302689 1807.0000000000002 0 -0 1
744.09095938084067 541.63276145302689 -1807 -0 0 -1
744.09095938084067 541.63276145302689 -1799 0 -0 1
744.09095938084067 541.63276145302689 1799.0000000000002 -0 0 -1
744.09095938084067 541.63276145302689 1807.0000000000002 0 -0 1
744.09095938084067 576.63276145302689 -1807 -0 0 -1
744.09095938084067 576.63276145302689 -1799 0 -0 1
744.09095938084067 576.63276145302689 1799.0000000000002 -0 0 -1
744.09095938084067 576.63276145302689 1807.0000000000002 0 -0 1
779.09095938084067 -613.36723844697303 -1830.0000001000033 -1.9116215605835299e-16 -1 4.2760165986582602e-32
779.09095938084067 -613.36723844697303 -1795.0000001000033 -1.9116215605835299e-16 -1 4.2760165986582602e-32
779.09095938084067 -613.36723844697303 -1760.0000001000033 -1.9116215605835299e-16 -1 4.2760165986582602e-32
779.09095938084067 -613.36723844697303 -1725.0000001000033 -1.9116215605835299e-16 -1 4.2760165986582602e-32
779.09095938084067 -613.36723844697303 -1690.0000001000033 -1.9116215605835299e-16 -1 4.2760165986582602e-32
779.09095938084067 -613.36723844697303 -1655.0000001000033 -1.9116215605835299e-16 -1 4.2760165986582602e-32
779.09095938084067 -613.36723844697303 -1620.0000001000033 -1.9116215605835299e-16 -1 4.2760165986582602e-32
779.09095938084067 -613.36723844697303 -1585.0000001000033 -1.9116215605835299e-16 -1 4.2760165986582602e-32
779.09095938084067 -613.36723844697303 -1550.0000001000033 -1.9116215605835299e-16 -1 4.2760165986582602e-32
779.09095938084067 -613.36723844697303 -1515.0000001000033 -1.9116215605835299e-16 -1 4.2760165986582602e-32
779.09095938084067 -613.36723844697303 -1480.0000001000033 -1.9116215605835299e-16 -1 4.2760165986582602e-32
779.09095938084067 -613.36723844697303 -535.00000010000326 -1.9116215605835299e-16 -1 4.2760165986582602e-32
779.09095938084067 -613.36723844697303 -500.00000010000326 -1.9116215605835299e-16 -1 4.2760165986582602e-32
779.09095938084067 -613.36723844697303 -465.00000010000326 -1.9116215605835299e-16 -1 4.2760165986582602e-32
779.09095938084067 -613.36723844697303 -430.00000010000326 -1.9116215605835299e-16 -1 4.2760165986582602e-32
779.09095938084067 -613.36723844697303 -395.00000010000326 -1.9116215605835299e-16 -1 4.2760165986582602e-32
779.09095938084067 -613.36723844697303 -360.00000010000326 -1.9116215605835299e-16 -1 4.2760165986582602e-32
779.09095938084067 -613.36723844697303 -325.00000010000326 -1.9116215605835299e-16 -1 4.2760165986582602e-32
779.09095938084067 -613.36723844697303 -290.00000010000326 -1.9116215605835299e-16 -1 4.2760165986582602e-32
779.09095938084067 -613.36723844697303 -255.00000010000326 -1.9116215605835299e-16 -1 4.2760165986582602e-32
779.09095938084067 -613.36723844697303 -220.00000010000326 -1.9116215605835299e-16 -1 4.2760165986582602e-32
779.09095938084067 -613.36723844697303 -185.00000010000326 -1.9116215605835299e-16 -1 4.2760165986582602e-32
779.09095938084067 -613.36723844697303 -150.00000010000326 -1.9116215605835299e-16 -1 4.2760165986582602e-32
779.09095938084067 -613.36723844697303 -115.00000010000326 -1.9116215605835299e-16 -1 4.2760165986582602e-32
779.09095938084067 -613.36723844697303 -80.000000100003263 -1.9116215605835299e-16 -1 4.2760165986582602e-32
779.09095938084067 -613.36723844697303 -45.000000100003263 -1.9116215605835299e-16 -1 4.2760165986582602e-32
779.09095938084067 -613.36723844697303 -10.000000100003263 -1.9116215605835299e-16 -1 4.2760165986582602e-32
779.09095938084067 -613.36723844697303 24.999999899996737 -1.9116215605835299e-16 -1 4.2760165986582602e-32
779.09095938084067 -613.36723844697303 59.999999899996737 -1.9116215605835299e-16 -1 4.2760165986582602e-32
779.09095938084067 -613.36723844697303 94.999999899996737 -1.9116215605835299e-16 -1 4.2760165986582602e-32
779.09095938084067 -613.36723844697303 129.99999989999674 -1.9116215605835299e-16 -1 4.2760165986582602e-32
779.09095938084067 -613.36723844697303 164.99999989999674 -1.9116215605835299e-16 -1 4.2760165986582602e-32
779.09095938084067 -613.36723844697303 199.99999989999674 -1.9116215605835299e-16 -1 4.2760165986582602e-32
779.09095938084067 -613.36723844697303 234.99999989999674 -1.9116215605835299e-16 -1 4.2760165986582602e-32
779.09095938084067 -613.36723844697303 269.99999989999674 -1.9116215605835299e-16 -1 4.2760165986582602e-32
779.09095938084067 -613.36723844697303 304.99999989999674 -1.9116215605835299e-16 -1 4.2760165986582602e-32
779.09095938084067 -613.36723844697303 339.99999989999674 -1.9116215605835299e-16 -1 4.2760165986582602e-32
779.09095938084067 -613.36723844697303 374.99999989999674 -1.9116215605835299e-16 -1 4.2760165986582602e-32
779.09095938084067 -613.36723844697303 409.99999989999674 -1.9116215605835299e-16 -1 4.2760165986582602e-32
779.09095938084067 -613.36723844697303 1389.9999998999967 -1.9116215605835299e-16 -1 4.2760165986582602e-32
779.09095938084067 -613.36723844697303 1424.9999998999967 -1.9116215605835299e-16 -1 4.2760165986582602e-32
779.09095938084067 -613.36723844697303 1459.9999998999967 -1.9116215605835299e-16 -1 4.2760165986582602e-32
779.09095938084067 -613.36723844697303 1494.9999998999967 -1.9116215605835299e-16 -1 4.2760165986582602e-32
779.09095938084067 -613.36723844697303 1529.9999998999967 -1.9116215605835299e-16 -1 4.2760165986582602e-32
779.09095938084067 -613.36723844697303 1564.9999998999967 -1.9116215605835299e-16 -1 4.2760165986582602e-32
779.09095938084067 -613.36723844697303 1599.9999998999967 -1.9116215605835299e-16 -1 4.2760165986582602e-32
779.09095938084067 -613.36723844697303 1634.9999998999967 -1.9116215605835299e-16 -1 4.2760165986582602e-32
779.09095938084067 -613.36723844697303 1669.9999998999967 -1.9116215605835299e-16 -1 4.2760165986582602e-32
779.09095938084067 -613.36723844697303 1704.9999998999967 -1.9116215605835299e-16 -1 4.2760165986582602e-32
779.09095938084067 -613.36723844697303 1739.9999998999967 -1.9116215605835299e-16 -1 4.2760165986582602e-32
779.09095938084067 -613.36723844697303 1774.9999998999967 -1.9116215605835299e-16 -1 4.2760165986582602e-32
779.09095938084067 -613.36723844697303 1809.9999998999967 -1.9116215605835299e-16 -1 4.2760165986582602e-32
779.09095938084067 -613.36723844697303 1844.9999998999967 -1.9116215605835299e-16 -1 4.2760165986582602e-32
779.09095938084067 -606.09454852875115 1844.9999998999967 5.4803931879593198e-08 -0.99999999999999856 1.2151946739891201e-16
779.09095938084067 -605.36723844697303 -1830.0000001000033 1.9116215605835299e-16 1 -4.2760165986582602e-32
779.09095938084067 -605.36723844697303 -1795.0000001000033 1.9116215605835299e-16 1 -4.2760165986582602e-32
779.09095938084067 -605.36723844697303 -1760.0000001000033 1.9116215605835299e-16 1 -4.2760165986582602e-32
779.09095938084067 -605.36723844697303 -1725.0000001000033 1.9116215605835299e-16 1 -4.2760165986582602e-32
779.09095938084067 -605.36723844697303 -1690.0000001000033 1.9116215605835299e-16 1 -4.2760165986582602e-32
779.09095938084067 -605.36723844697303 -1655.0000001000033 1.9116215605835299e-16 1 -4.2760165986582602e-32
779.09095938084067 -605.36723844697303 -1620.0000001000033 1.9116215605835299e-16 1 -4.2760165986582602e-32
779.09095938084067 -605.36723844697303 -1585.0000001000033 1.9116215605835299e-16 1 -4.2760165986582602e-32
779.09095938084067 -605.36723844697303 -1550.0000001000033 1.9116215605835299e-16 1 -4.2760165986582602e-32
779.09095938084067 -605.36723844697303 -1515.0000001000033 1.9116215605835299e-16 1 -4.2760165986582602e-32
779.09095938084067 -605.36723844697303 -1480.0000001000033 1.9116215605835299e-16 1 -4.2760165986582602e-32
779.09095938084067 -605.36723844697303 -535.00000010000326 1.9116215605835299e-16 1 -4.2760165986582602e-32
779.09095938084067 -605.36723844697303 -500.00000010000326 1.9116215605835299e-16 1 -4.2760165986582602e-32
779.09095938084067 -605.36723844697303 -465.00000010000326 1.9116215605835299e-16 1 -4.2760165986582602e-32
779.09095938084067 -605.36723844697303 -430.00000010000326 1.9116215605835299e-16 1 -4.2760165986582602e-32
779.09095938084067 -605.36723844697303 -395.00000010000326 1.9116215605835299e-16 1 -4.2760165986582602e-32
779.09095938084067 -605.36723844697303 -360.00000010000326 1.9116215605835299e-16 1 -4.2760165986582602e-32
779.09095938084067 -605.36723844697303 -325.00000010000326 1.9116215605835299e-16 1 -4.2760165986582602e-32
779.09095938084067 -605.36723844697303 -290.00000010000326 1.9116215605835299e-16 1 -4.2760165986582602e-32
779.09095938084067 -605.36723844697303 -255.00000010000326 1.9116215605835299e-16 1 -4.2760165986582602e-32
779.09095938084067 -605.36723844697303 -220.00000010000326 1.9116215605835299e-16 1 -4.2760165986582602e-32
779.09095938084067 -605.36723844697303 -185.00000010000326 1.9116215605835299e-16 1 -4.2760165986582602e-32
779.09095938084067 -605.36723844697303 -150.00000010000326 1.9116215605835299e-16 1 -4.2760165986582602e-32
779.09095938084067 -605.36723844697303 -115.00000010000326 1.9116215605835299e-16 1 -4.2760165986582602e-32
779.09095938084067 -605.36723844697303 -80.000000100003263 1.9116215605835299e-16 1 -4.2760165986582602e-32
779.09095938084067 -605.36723844697303 -45.000000100003263 1.9116215605835299e-16 1 -4.2760165986582602e-32
779.09095938084067 -605.36723844697303 -10.000000100003263 1.9116215605835299e-16 1 -4.2760165986582602e-32
779.09095938084067 -605.36723844697303 24.999999899996737 1.9116215605835299e-16 1 -4.2760165986582602e-32
779.09095938084067 -605.36723844697303 59.999999899996737 1.9116215605835299e-16 1 -4.2760165986582602e-32
779.09095938084067 -605.36723844697303 94.999999899996737 1.9116215605835299e-16 1 -4.2760165986582602e-32
779.09095938084067 -605.36723844697303 129.99999989999674 1.9116215605835299e-16 1 -4.2760165986582602e-32
779.09095938084067 -605.36723844697303 164.99999989999674 1.9116215605835299e-16 1 -4.2760165986582602e-32
779.09095938084067 -605.36723844697303 199.99999989999674 1.9116215605835299e-16 1 -4.2760165986582602e-32
779.09095938084067 -605.36723844697303 234.99999989999674 1.9116215605835299e-16 1 -4.2760165986582602e-32
779.09095938084067 -605.36723844697303 269.99999989999674 1.9116215605835299e-16 1 -4.2760165986582602e-32
779.09095938084067 -605.36723844697303 304.99999989999674 1.9116215605835299e-16 1 -4.2760165986582602e-32
779.09095938084067 -605.36723844697303 339.99999989999674 1.9116215605835299e-16 1 -4.2760165986582602e-32
779.09095938084067 -605.36723844697303 374.99999989999674 1.9116215605835299e-16 1 -4.2760165986582602e-32
779.09095938084067 -605.36723844697303 409.99999989999674 1.9116215605835299e-16 1 -4.2760165986582602e-32
779.09095938084067 -605.36723844697303 1389.9999998999967 1.9116215605835299e-16 1 -4.2760165986582602e-32
779.09095938084067 -605.36723844697303 1424.9999998999967 1.9116215605835299e-16 1 -4.2760165986582602e-32
779.09095938084067 -605.36723844697303 1459.9999998999967 1.9116215605835299e-16 1 -4.2760165986582602e-32
779.09095938084067 -605.36723844697303 1494.9999998999967 1.9116215605835299e-16 1 -4.2760165986582602e-32
779.09095938084067 -605.36723844697303 1529.9999998999967 1.9116215605835299e-16 1 -4.2760165986582602e-32
779.09095938084067 -605.36723844697303 1564.9999998999967 1.9116215605835299e-16 1 -4.2760165986582602e-32
779.09095938084067 -605.36723844697303 1599.9999998999967 1.9116215605835299e-16 1 -4.2760165986582602e-32
779.09095938084067 -605.36723844697303 1634.9999998999967 1.9116215605835299e-16 1 -4.2760165986582602e-32
779.09095938084067 -605.36723844697303 1669.9999998999967 1.9116215605835299e-16 1 -4.2760165986582602e-32
779.09095938084067 -605.36723844697303 1704.9999998999967 1.9116215605835299e-16 1 -4.2760165986582602e-32
779.09095938084067 -605.36723844697303 1739.9999998999967 1.9116215605835299e-16 1 -4.2760165986582602e-32
779.09095938084067 -605.36723844697303 1774.9999998999967 1.9116215605835299e-16 1 -4.2760165986582602e-32
779.09095938084067 -605.36723844697303 1809.9999998999967 1.9116215605835299e-16 1 -4.2760165986582602e-32
779.09095938084067 -605.36723844697303 1844.9999998999967 1.9116215605835299e-16 1 -4.2760165986582602e-32
779.09095938084067 -604.67767243830428 1809.9999998999967 5.0490021838333463e-08 -0.92128466164235234 -0.38888889444484498
779.09095938084067 -598.09454852875115 1844.9999998999967 -5.4803931879532066e-08 0.99999999999999856 -1.2151946739891201e-16
779.09095938084067 -597.36723844697269 -1830.0000001000033 1.9123903639374096e-16 1 -2.7137105751913901e-16
779.09095938084067 -595.23597685924585 1809.9999998999967 -3.9137835174791562e-08 0.7141428330507561 0.70000001000159884
779.09095938084067 -578.36723854697311 -1807 -0 0 -1
779.09095938084067 -578.36723854697311 -1799 0 -0 1
779.09095938084067 -578.36723854697311 1799.0000000000002 -0 0 -1
779.09095938084067 -578.36723854697311 1807.0000000000002 0 -0 1
779.09095938084067 -543.36723854697311 -1807 -0 0 -1
779.09095938084067 -543.36723854697311 -1799 0 -0 1
779.09095938084067 -543.36723854697311 1799.0000000000002 -0 0 -1
779.09095938084067 -543.36723854697311 1807.0000000000002 0 -0 1
779.09095938084067 -508.36723854697311 -1807 -0 0 -1
779.09095938084067 -508.36723854697311 -1799 0 -0 1
779.09095938084067 -508.36723854697311 1799.0000000000002 -0 0 -1
779.09095938084067 -508.36723854697311 1807.0000000000002 0 -0 1
779.09095938084067 -473.36723854697311 -1807 -0 0 -1
779.09095938084067 -473.36723854697311 -1799 0 -0 1
779.09095938084067 -473.36723854697311 1799.0000000000002 -0 0 -1
779.09095938084067 -473.36723854697311 1807.0000000000002 0 -0 1
779.09095938084067 -438.36723854697311 -1807 -0 0 -1
779.09095938084067 -438.36723854697311 -1799 0 -0 1
779.09095938084067 -438.36723854697311 1799.0000000000002 -0 0 -1
779.09095938084067 -438.36723854697311 1807.0000000000002 0 -0 1
779.09095938084067 -403.36723854697311 -1807 -0 0 -1
779.09095938084067 -403.36723854697311 -1799 0 -0 1
779.09095938084067 -403.36723854697311 1799.0000000000002 -0 0 -1
779.09095938084067 -403.36723854697311 1807.0000000000002 0 -0 1
779.09095938084067 -368.36723854697311 -1807 -0 0 -1
779.09095938084067 -368.36723854697311 -1799 0 -0 1
779.09095938084067 -368.36723854697311 1799.0000000000002 -0 0 -1
779.09095938084067 -368.36723854697311 1807.0000000000002 0 -0 1
779.09095938084067 -362.6202730253699 -1830.0000001000033 7.0691748179819918e-18 -1 5.1317082433770156e-49
779.09095938084067 -362.6202730253699 -1795.0000001000033 7.0691748179819918e-18 -1 5.1317082433770156e-49
779.09095938084067 -362.6202730253699 -1760.0000001000033 7.0691748179819918e-18 -1 5.1317082433770156e-49
779.09095938084067 -356.43654856473512 1739.9999998999967 5.4803931799281882e-08 -0.99999999999999856 1.2956211103205295e-31
779.09095938084067 -356.43654856473512 1774.9999998999967 5.4803931799281882e-08 -0.99999999999999856 1.2956211103205295e-31
779.09095938084067 -356.43654856473512 1809.9999998999967 5.4803931799281882e-08 -0.99999999999999856 1.2956211103205295e-31
779.09095938084067 -352.6202730253699 -1830.0000001000033 -7.0691748179819918e-18 1 -5.1317082433770156e-49
779.09095938084067 -352.6202730253699 -1795.0000001000033 -7.0691748179819918e-18 1 -5.1317082433770156e-49
779.09095938084067 -352.6202730253699 -1760.0000001000033 -7.0691748179819918e-18 1 -5.1317082433770156e-49
779.09095938084067 -346.43654856473506 1739.9999998999967 -5.4803931799281882e-08 0.99999999999999856 -1.2956211103205295e-31
779.09095938084067 -346.43654856473506 1774.9999998999967 -5.4803931799281882e-08 0.99999999999999856 -1.2956211103205295e-31
779.09095938084067 -346.43654856473506 1809.9999998999967 -5.4803931799281882e-08 0.99999999999999856 -1.2956211103205295e-31
779.09095938084067 347.3797269746301 -1830.0000001000033 2.3964705287649797e-16 -1 5.4738221262688167e-48
779.09095938084067 347.3797269746301 -1795.0000001000033 2.3964705287649797e-16 -1 5.4738221262688167e-48
779.09095938084067 347.3797269746301 -1760.0000001000033 2.3964705287649797e-16 -1 5.4738221262688167e-48
779.09095938084067 353.56345143526596 1739.9999998999967 5.4803932120906413e-08 -0.99999999999999856 -7.0687992761825006e-40
779.09095938084067 353.56345143526596 1774.9999998999967 5.4803932120906413e-08 -0.99999999999999856 -7.0687992761825006e-40
779.09095938084067 353.56345143526596 1809.9999998999967 5.4803932120906413e-08 -0.99999999999999856 -7.0687992761825006e-40
779.09095938084067 357.3797269746301 -1830.0000001000033 -2.3964705287649797e-16 1 -5.4738221262688167e-48
779.09095938084067 357.3797269746301 -1795.0000001000033 -2.3964705287649797e-16 1 -5.4738221262688167e-48
779.09095938084067 357.3797269746301 -1760.0000001000033 -2.3964705287649797e-16 1 -5.4738221262688167e-48
779.09095938084067 363.56345143526596 1739.9999998999967 -5.4803932120906413e-08 0.99999999999999856 7.0687992761825006e-40
779.09095938084067 363.56345143526596 1774.9999998999967 -5.4803932120906413e-08 0.99999999999999856 7.0687992761825006e-40
779.09095938084067 363.56345143526596 1809.9999998999967 -5.4803932120906413e-08 0.99999999999999856 7.0687992761825006e-40
779.09095938084067 366.63276145302689 -1807 -0 0 -1
779.09095938084067 366.63276145302689 -1799 0 -0 1
779.09095938084067 366.63276145302689 1799.0000000000002 -0 0 -1
779.09095938084067 366.63276145302689 1807.0000000000002 0 -0 1
779.09095938084067 401.63276145302689 -1807 -0 0 -1
779.09095938084067 401.63276145302689 -1799 0 -0 1
779.09095938084067 401.63276145302689 1799.0000000000002 -0 0 -1
779.09095938084067 401.63276145302689 1807.0000000000002 0 -0 1
779.09095938084067 436.63276145302689 -1807 -0 0 -1
779.09095938084067 436.63276145302689 -1799 0 -0 1
779.09095938084067 436.63276145302689 1799.0000000000002 -0 0 -1
779.09095938084067 436.63276145302689 1807.0000000000002 0 -0 1
779.09095938084067 471.63276145302689 -1807 -0 0 -1
779.09095938084067 471.63276145302689 -1799 0 -0 1
779.09095938084067 471.63276145302689 1799.0000000000002 -0 0 -1
779.09095938084067 471.63276145302689 1807.0000000000002 0 -0 1
779.09095938084067 506.63276145302689 -1807 -0 0 -1
779.09095938084067 506.63276145302689 -1799 0 -0 1
779.09095938084067 506.63276145302689 1799.0000000000002 -0 0 -1
779.09095938084067 506.63276145302689 1807.0000000000002 0 -0 1
779.09095938084067 541.63276145302689 -1807 -0 0 -1
779.09095938084067 541.63276145302689 -1799 0 -0 1
779.09095938084067 541.63276145302689 1799.0000000000002 -0 0 -1
779.09095938084067 541.63276145302689 1807.0000000000002 0 -0 1
779.09095938084067 576.63276145302689 -1807 -0 0 -1
779.09095938084067 576.63276145302689 -1799 0 -0 1
779.09095938084067 576.63276145302689 1799.0000000000002 -0 0 -1
779.09095938084067 576.63276145302689 1807.0000000000002 0 -0 1
814.09095938084067 -613.36723844697303 -1830.0000001000033 -1.9116215605835299e-16 -1 4.2760165986582602e-32
814.09095938084067 -613.36723844697303 -1795.0000001000033 -1.9116215605835299e-16 -1 4.2760165986582602e-32
814.09095938084067 -613.36723844697303 -1760.0000001000033 -1.9116215605835299e-16 -1 4.2760165986582602e-32
814.09095938084067 -613.36723844697303 -1725.0000001000033 -1.9116215605835299e-16 -1 4.2760165986582602e-32
814.09095938084067 -613.36723844697303 -1690.0000001000033 -1.9116215605835299e-16 -1 4.2760165986582602e-32
814.09095938084067 -613.36723844697303 -1655.0000001000033 -1.9116215605835299e-16 -1 4.2760165986582602e-32
814.09095938084067 -613.36723844697303 -1620.0000001000033 -1.9116215605835299e-16 -1 4.2760165986582602e-32
814.09095938084067 -613.36723844697303 -1585.0000001000033 -1.9116215605835299e-16 -1 4.2760165986582602e-32
814.09095938084067 -613.36723844697303 -1550.0000001000033 -1.9116215605835299e-16 -1 4.2760165986582602e-32
814.09095938084067 -613.36723844697303 -1515.0000001000033 -1.9116215605835299e-16 -1 4.2760165986582602e-32
814.09095938084067 -613.36723844697303 -1480.0000001000033 -1.9116215605835299e-16 -1 4.2760165986582602e-32
814.09095938084067 -613.36723844697303 -535.00000010000326 -1.9116215605835299e-16 -1 4.2760165986582602e-32
814.09095938084067 -613.36723844697303 -500.00000010000326 -1.9116215605835299e-16 -1 4.2760165986582602e-32
814.09095938084067 -613.36723844697303 -465.00000010000326 -1.9116215605835299e-16 -1 4.2760165986582602e-32
814.09095938084067 -613.36723844697303 -430.00000010000326 -1.9116215605835299e-16 -1 4.2760165986582602e-32
814.09095938084067 -613.36723844697303 -395.00000010000326 -1.9116215605835299e-16 -1 4.2760165986582602e-32
814.09095938084067 -613.36723844697303 -360.00000010000326 -1.9116215605835299e-16 -1 4.2760165986582602e-32
814.09095938084067 -613.36723844697303 -325.00000010000326 -1.9116215605835299e-16 -1 4.2760165986582602e-32
814.09095938084067 -613.36723844697303 -290.00000010000326 -1.9116215605835299e-16 -1 4.2760165986582602e-32
814.09095938084067 -613.36723844697303 -255.00000010000326 -1.9116215605835299e-16 -1 4.2760165986582602e-32
814.09095938084067 -613.36723844697303 -220.00000010000326 -1.9116215605835299e-16 -1 4.2760165986582602e-32
814.09095938084067 -613.36723844697303 -185.00000010000326 -1.9116215605835299e-16 -1 4.2760165986582602e-32
814.09095938084067 -613.36723844697303 -150.00000010000326 -1.9116215605835299e-16 -1 4.2760165986582602e-32
814.09095938084067 -613.36723844697303 -115.00000010000326 -1.9116215605835299e-16 -1 4.2760165986582602e-32
814.09095938084067 -613.36723844697303 -80.000000100003263 -1.9116215605835299e-16 -1 4.2760165986582602e-32
814.09095938084067 -613.36723844697303 -45.000000100003263 -1.9116215605835299e-16 -1 4.2760165986582602e-32
814.09095938084067 -613.36723844697303 -10.000000100003263 -1.9116215605835299e-16 -1 4.2760165986582602e-32
814.09095938084067 -613.36723844697303 24.999999899996737 -1.9116215605835299e-16 -1 4.2760165986582602e-32
814.09095938084067 -613.36723844697303 59.999999899996737 -1.9116215605835299e-16 -1 4.2760165986582602e-32
814.09095938084067 -613.36723844697303 94.999999899996737 -1.9116215605835299e-16 -1 4.2760165986582602e-32
814.09095938084067 -613.36723844697303 129.99999989999674 -1.9116215605835299e-16 -1 4.2760165986582602e-32
814.09095938084067 -613.36723844697303 164.99999989999674 -1.9116215605835299e-16 -1 4.2760165986582602e-32
814.09095938084067 -613.36723844697303 199.99999989999674 -1.9116215605835299e-16 -1 4.2760165986582602e-32
814.09095938084067 -613.36723844697303 234.99999989999674 -1.9116215605835299e-16 -1 4.2760165986582602e-32
814.09095938084067 -613.36723844697303 269.99999989999674 -1.9116215605835299e-16 -1 4.2760165986582602e-32
814.09095938084067 -613.36723844697303 304.99999989999674 -1.9116215605835299e-16 -1 4.2760165986582602e-32
814.09095938084067 -613.36723844697303 339.99999989999674 -1.9116215605835299e-16 -1 4.2760165986582602e-32
814.09095938084067 -613.36723844697303 374.99999989999674 -1.9116215605835299e-16 -1 4.2760165986582602e-32
814.09095938084067 -613.36723844697303 409.99999989999674 -1.9116215605835299e-16 -1 4.2760165986582602e-32
814.09095938084067 -613.36723844697303 444.99999989999674 -1.9116215605835299e-16 -1 4.2760165986582602e-32
814.09095938084067 -613.36723844697303 1389.9999998999967 -1.9116215605835299e-16 -1 4.2760165986582602e-32
814.09095938084067 -613.36723844697303 1424.9999998999967 -1.9116215605835299e-16 -1 4.2760165986582602e-32
814.09095938084067 -613.36723844697303 1459.9999998999967 -1.9116215605835299e-16 -1 4.2760165986582602e-32
814.09095938084067 -613.36723844697303 1494.9999998999967 -1.9116215605835299e-16 -1 4.2760165986582602e-32
814.09095938084067 -613.36723844697303 1529.9999998999967 -1.9116215605835299e-16 -1 4.2760165986582602e-32
814.09095938084067 -613.36723844697303 1564.9999998999967 -1.9116215605835299e-16 -1 4.2760165986582602e-32
814.09095938084067 -613.36723844697303 1599.9999998999967 -1.9116215605835299e-16 -1 4.2760165986582602e-32
814.09095938084067 -613.36723844697303 1634.9999998999967 -1.9116215605835299e-16 -1 4.2760165986582602e-32
814.09095938084067 -613.36723844697303 1669.9999998999967 -1.9116215605835299e-16 -1 4.2760165986582602e-32
814.09095938084067 -613.36723844697303 1704.9999998999967 -1.9116215605835299e-16 -1 4.2760165986582602e-32
814.09095938084067 -613.36723844697303 1739.9999998999967 -1.9116215605835299e-16 -1 4.2760165986582602e-32
814.09095938084067 -613.36723844697303 1774.9999998999967 -1.9116215605835299e-16 -1 4.2760165986582602e-32
814.09095938084067 -613.36723844697303 1809.9999998999967 -1.9116215605835299e-16 -1 4.2760165986582602e-32
814.09095938084067 -613.36723844697303 1844.9999998999967 -1.9116215605835299e-16 -1 4.2760165986582602e-32
814.09095938084067 -606.09454661061352 1844.9999998999967 5.4803931879593198e-08 -0.99999999999999856 1.2151946739891201e-16
814.09095938084067 -605.36723844697303 -1830.0000001000033 1.9116215605835299e-16 1 -4.2760165986582602e-32
814.09095938084067 -605.36723844697303 -1795.0000001000033 1.9116215605835299e-16 1 -4.2760165986582602e-32
814.09095938084067 -605.36723844697303 -1760.0000001000033 1.9116215605835299e-16 1 -4.2760165986582602e-32
814.09095938084067 -605.36723844697303 -1725.0000001000033 1.9116215605835299e-16 1 -4.2760165986582602e-32
814.09095938084067 -605.36723844697303 -1690.0000001000033 1.9116215605835299e-16 1 -4.2760165986582602e-32
814.09095938084067 -605.36723844697303 -1655.0000001000033 1.9116215605835299e-16 1 -4.2760165986582602e-32
814.09095938084067 -605.36723844697303 -1620.0000001000033 1.9116215605835299e-16 1 -4.2760165986582602e-32
814.09095938084067 -605.36723844697303 -1585.0000001000033 1.9116215605835299e-16 1 -4.2760165986582602e-32
814.09095938084067 -605.36723844697303 -1550.0000001000033 1.9116215605835299e-16 1 -4.2760165986582602e-32
814.09095938084067 -605.36723844697303 -1515.0000001000033 1.9116215605835299e-16 1 -4.2760165986582602e-32
814.09095938084067 -605.36723844697303 -1480.0000001000033 1.9116215605835299e-16 1 -4.2760165986582602e-32
814.09095938084067 -605.36723844697303 -535.00000010000326 1.9116215605835299e-16 1 -4.2760165986582602e-32
814.09095938084067 -605.36723844697303 -500.00000010000326 1.9116215605835299e-16 1 -4.2760165986582602e-32
814.09095938084067 -605.36723844697303 -465.00000010000326 1.9116215605835299e-16 1 -4.2760165986582602e-32
814.09095938084067 -605.36723844697303 -430.00000010000326 1.9116215605835299e-16 1 -4.2760165986582602e-32
814.09095938084067 -605.36723844697303 -395.00000010000326 1.9116215605835299e-16 1 -4.2760165986582602e-32
814.09095938084067 -605.36723844697303 -360.00000010000326 1.9116215605835299e-16 1 -4.2760165986582602e-32
814.09095938084067 -605.36723844697303 -325.00000010000326 1.9116215605835299e-16 1 -4.2760165986582602e-32
814.09095938084067 -605.36723844697303 -290.00000010000326 1.9116215605835299e-16 1 -4.2760165986582602e-32
814.09095938084067 -605.36723844697303 -255.00000010000326 1.9116215605835299e-16 1 -4.2760165986582602e-32
814.09095938084067 -605.36723844697303 -220.00000010000326 1.9116215605835299e-16 1 -4.2760165986582602e-32
814.09095938084067 -605.36723844697303 -185.00000010000326 1.9116215605835299e-16 1 -4.2760165986582602e-32
814.09095938084067 -605.36723844697303 -150.00000010000326 1.9116215605835299e-16 1 -4.2760165986582602e-32
814.09095938084067 -605.36723844697303 -115.00000010000326 1.9116215605835299e-16 1 -4.2760165986582602e-32
814.09095938084067 -605.36723844697303 -80.000000100003263 1.9116215605835299e-16 1 -4.2760165986582602e-32
814.09095938084067 -605.36723844697303 -45.000000100003263 1.9116215605835299e-16 1 -4.2760165986582602e-32
814.09095938084067 -605.36723844697303 -10.000000100003263 1.9116215605835299e-16 1 -4.2760165986582602e-32
814.09095938084067 -605.36723844697303 24.999999899996737 1.9116215605835299e-16 1 -4.2760165986582602e-32
814.09095938084067 -605.36723844697303 59.999999899996737 1.9116215605835299e-16 1 -4.2760165986582602e-32
814.09095938084067 -605.36723844697303 94.999999899996737 1.9116215605835299e-16 1 -4.2760165986582602e-32
814.09095938084067 -605.36723844697303 129.99999989999674 1.9116215605835299e-16 1 -4.2760165986582602e-32
814.09095938084067 -605.36723844697303 164.99999989999674 1.9116215605835299e-16 1 -4.2760165986582602e-32
814.09095938084067 -605.36723844697303 199.99999989999674 1.9116215605835299e-16 1 -4.2760165986582602e-32
814.09095938084067 -605.36723844697303 234.99999989999674 1.9116215605835299e-16 1 -4.2760165986582602e-32
814.09095938084067 -605.36723844697303 269.99999989999674 1.9116215605835299e-16 1 -4.2760165986582602e-32
814.09095938084067 -605.36723844697303 304.99999989999674 1.9116215605835299e-16 1 -4.2760165986582602e-32
814.09095938084067 -605.36723844697303 339.99999989999674 1.9116215605835299e-16 1 -4.2760165986582602e-32
814.09095938084067 -605.36723844697303 374.99999989999674 1.9116215605835299e-16 1 -4.2760165986582602e-32
814.09095938084067 -605.36723844697303 409.99999989999674 1.9116215605835299e-16 1 -4.2760165986582602e-32
814.09095938084067 -605.36723844697303 444.99999989999674 1.9116215605835299e-16 1 -4.2760165986582602e-32
814.09095938084067 -605.36723844697303 1389.9999998999967 1.9116215605835299e-16 1 -4.2760165986582602e-32
814.09095938084067 -605.36723844697303 1424.9999998999967 1.9116215605835299e-16 1 -4.2760165986582602e-32
814.09095938084067 -605.36723844697303 1459.9999998999967 1.9116215605835299e-16 1 -4.2760165986582602e-32
814.09095938084067 -605.36723844697303 1494.9999998999967 1.9116215605835299e-16 1 -4.2760165986582602e-32
814.09095938084067 -605.36723844697303 1529.9999998999967 1.9116215605835299e-16 1 -4.2760165986582602e-32
814.09095938084067 -605.36723844697303 1564.9999998999967 1.9116215605835299e-16 1 -4.2760165986582602e-32
814.09095938084067 -605.36723844697303 1599.9999998999967 1.9116215605835299e-16 1 -4.2760165986582602e-32
814.09095938084067 -605.36723844697303 1634.9999998999967 1.9116215605835299e-16 1 -4.2760165986582602e-32
814.09095938084067 -605.36723844697303 1669.9999998999967 1.9116215605835299e-16 1 -4.2760165986582602e-32
814.09095938084067 -605.36723844697303 1704.9999998999967 1.9116215605835299e-16 1 -4.2760165986582602e-32
814.09095938084067 -605.36723844697303 1739.9999998999967 1.9116215605835299e-16 1 -4.2760165986582602e-32
814.09095938084067 -605.36723844697303 1774.9999998999967 1.9116215605835299e-16 1 -4.2760165986582602e-32
814.09095938084067 -605.36723844697303 1809.9999998999967 1.9116215605835299e-16 1 -4.2760165986582602e-32
814.09095938084067 -605.36723844697303 1844.9999998999967 1.9116215605835299e-16 1 -4.2760165986582602e-32
814.09095938084067 -604.67767052018053 1809.9999998999967 5.0490021838339856e-08 -0.92128466164246903 -0.38888889444456881
814.09095938084067 -598.09454661061352 1844.9999998999967 -5.4803931879532066e-08 0.99999999999999856 -1.2151946739891201e-16
814.09095938084067 -597.36723844697269 -1830.0000001000033 1.9123903639374096e-16 1 -2.7137105751913901e-16
814.09095938084067 -595.23597494114017 1809.9999998999967 -3.913783517487735e-08 0.7141428330523214 0.70000001000000178
814.09095938084067 -578.36723854697311 -1807 -0 0 -1
814.09095938084067 -578.36723854697311 -1799 0 -0 1
814.09095938084067 -578.36723854697311 1799.0000000000002 -0 0 -1
814.09095938084067 -578.36723854697311 1807.0000000000002 0 -0 1
814.09095938084067 -543.36723854697311 -1807 -0 0 -1
814.09095938084067 -543.36723854697311 -1799 0 -0 1
814.09095938084067 -543.36723854697311 1799.0000000000002 -0 0 -1
814.09095938084067 -543.36723854697311 1807.0000000000002 0 -0 1
814.09095938084067 -508.36723854697311 -1807 -0 0 -1
814.09095938084067 -508.36723854697311 -1799 0 -0 1
814.09095938084067 -508.36723854697311 1799.0000000000002 -0 0 -1
814.09095938084067 -508.36723854697311 1807.0000000000002 0 -0 1
814.09095938084067 -473.36723854697311 -1807 -0 0 -1
814.09095938084067 -473.36723854697311 -1799 0 -0 1
814.09095938084067 -473.36723854697311 1799.0000000000002 -0 0 -1
814.09095938084067 -473.36723854697311 1807.0000000000002 0 -0 1
814.09095938084067 -438.36723854697311 -1807 -0 0 -1
814.09095938084067 -438.36723854697311 -1799 0 -0 1
814.09095938084067 -438.36723854697311 1799.0000000000002 -0 0 -1
814.09095938084067 -438.36723854697311 1807.0000000000002 0 -0 1
814.09095938084067 -403.36723854697311 -1807 -0 0 -1
814.09095938084067 -403.36723854697311 -1799 0 -0 1
814.09095938084067 -403.36723854697311 1799.0000000000002 -0 0 -1
814.09095938084067 -403.36723854697311 1807.0000000000002 0 -0 1
814.09095938084067 -368.36723854697311 -1807 -0 0 -1
814.09095938084067 -368.36723854697311 -1799 0 -0 1
814.09095938084067 -368.36723854697311 1799.0000000000002 -0 0 -1
814.09095938084067 -368.36723854697311 1807.0000000000002 0 -0 1
814.09095938084067 -362.6202730253699 -1830.0000001000033 7.0691748179819918e-18 -1 5.1317082433770156e-49
814.09095938084067 -362.6202730253699 -1795.0000001000033 7.0691748179819918e-18 -1 5.1317082433770156e-49
814.09095938084067 -362.6202730253699 -1760.0000001000033 7.0691748179819918e-18 -1 5.1317082433770156e-49
814.09095938084067 -356.43654664659749 1739.9999998999967 5.4803931799281882e-08 -0.99999999999999856 1.2956211103205295e-31
814.09095938084067 -356.43654664659749 1774.9999998999967 5.4803931799281882e-08 -0.99999999999999856 1.2956211103205295e-31
814.09095938084067 -356.43654664659749 1809.9999998999967 5.4803931799281882e-08 -0.99999999999999856 1.2956211103205295e-31
814.09095938084067 -352.6202730253699 -1830.0000001000033 -7.0691748179819918e-18 1 -5.1317082433770156e-49
814.09095938084067 -352.6202730253699 -1795.0000001000033 -7.0691748179819918e-18 1 -5.1317082433770156e-49
814.09095938084067 -352.6202730253699 -1760.0000001000033 -7.0691748179819918e-18 1 -5.1317082433770156e-49
814.09095938084067 -346.43654664659744 1739.9999998999967 -5.4803931799281882e-08 0.99999999999999856 -1.2956211103205295e-31
814.09095938084067 -346.43654664659744 1774.9999998999967 -5.4803931799281882e-08 0.99999999999999856 -1.2956211103205295e-31
814.09095938084067 -346.43654664659744 1809.9999998999967 -5.4803931799281882e-08 0.99999999999999856 -1.2956211103205295e-31
814.09095938084067 347.3797269746301 -1830.0000001000033 2.3964705287649797e-16 -1 5.4738221262688167e-48
814.09095938084067 347.3797269746301 -1795.0000001000033 2.3964705287649797e-16 -1 5.4738221262688167e-48
814.09095938084067 347.3797269746301 -1760.0000001000033 2.3964705287649797e-16 -1 5.4738221262688167e-48
814.09095938084067 353.56345335340359 1739.9999998999967 5.4803932120906413e-08 -0.99999999999999856 -7.0687992761825006e-40
814.09095938084067 353.56345335340359 1774.9999998999967 5.4803932120906413e-08 -0.99999999999999856 -7.0687992761825006e-40
814.09095938084067 353.56345335340359 1809.9999998999967 5.4803932120906413e-08 -0.99999999999999856 -7.0687992761825006e-40
814.09095938084067 357.3797269746301 -1830.0000001000033 -2.3964705287649797e-16 1 -5.4738221262688167e-48
