ply
format ascii 1.0
comment PCL generated
element vertex 1401
property float x
property float y
property float z
element face 0
element camera 0
property float view_px
property float view_py
property float view_pz
property float x_axisx
property float x_axisy
property float x_axisz
property float y_axisx
property float y_axisy
property float y_axisz
property float z_axisx
property float z_axisy
property float z_axisz
property float focal
property float scalex
property float scaley
property float centerx
property float centery
property int viewportx
property int viewporty
property float k1
property float k2
end_header
-0.60616452 -0.1619212 0.46072137
-0.60616452 -0.16992521 0.46227309
-0.60616446 -0.17798454 0.46390545
-0.6061644 -0.1861022 0.46561992
-0.60616446 -0.19428135 0.46741799
-0.60616434 -0.20252514 0.46930093
-0.6061644 -0.21083692 0.47127068
-0.6061644 -0.21922001 0.47332865
-0.6061644 -0.22767793 0.47547677
-0.60616434 -0.23621422 0.47771683
-0.60616434 -0.24483266 0.48005092
-0.60616428 -0.25353703 0.48248103
-0.60616434 -0.26233137 0.48500955
-0.60616434 -0.27121967 0.48763862
-0.60616434 -0.28020623 0.49037072
-0.60616428 -0.28929543 0.49320844
-0.60616428 -0.29849184 0.49615452
-0.60616428 -0.3078002 0.49921179
-0.60616428 -0.31722543 0.50238329
-0.60616422 -0.32677257 0.50567204
-0.60616422 -0.336447 0.50908148
-0.60616428 -0.34625435 0.51261514
-0.60616422 -0.35620028 0.5162766
-0.60616428 -0.36629084 0.52006984
-0.60616422 -0.37653229 0.5239988
-0.60616422 -0.3869313 0.52806789
-0.60616422 -0.39749467 0.53228164
-0.60616422 -0.40822959 0.53664476
-0.60616416 -0.41914359 0.54116231
-0.60616422 -0.43024465 0.54583973
-0.60616499 -0.44154155 0.55068314
-0.6061638 -0.45304102 0.55569613
-0.60616446 -0.464755 0.56088841
-0.60616398 -0.47669083 0.56626374
-0.60616422 -0.48886007 0.57183087
-0.60616422 -0.50127268 0.57759637
-0.60616422 -0.5139401 0.58356827
-0.60616422 -0.52687413 0.58975488
-0.60616416 -0.54008728 0.59616494
-0.60616416 -0.55359298 0.60280782
-0.60616416 -0.56740516 0.60969353
-0.60616416 -0.58153868 0.61683249
-0.6061641 -0.59600919 0.62423581
-0.60616416 -0.61083376 0.63191569
-0.60616416 -0.62602985 0.63988459
-0.6061641 -0.6416164 0.64815599
-0.60616416 -0.65761381 0.6567446
-0.60616416 -0.6740433 0.66566557
-0.60616416 -0.6909278 0.6749354
-0.6061641 -0.70829189 0.68457186
-0.60616422 -0.72616184 0.69459397
-0.60616422 -0.74456555 0.70502174
-0.6061641 -0.763533 0.71587688
-0.60616416 -0.78309685 0.72718316
-0.60616416 -0.80329162 0.73896551
-0.60421067 -0.82149881 0.74883014
-0.59407425 -0.82885873 0.7488302
-0.58384806 -0.83609354 0.7488302
-0.57353389 -0.84320223 0.74883032
-0.56313318 -0.85018373 0.74883038
-0.55264747 -0.85703695 0.74883044
-0.54207832 -0.86376077 0.74883044
-0.53142744 -0.87035435 0.7488305
-0.5206964 -0.87681663 0.74883068
-0.50988668 -0.88314646 0.74883068
-0.4990001 -0.88934314 0.74883074
-0.48803818 -0.89540553 0.74883074
-0.47700265 -0.90133291 0.7488308
-0.46589512 -0.90712422 0.7488308
-0.45471731 -0.91277868 0.74883085
-0.44347087 -0.91829544 0.74883091
-0.43215755 -0.92367363 0.74883097
-0.42077896 -0.9289124 0.74883097
-0.40933695 -0.93401116 0.74883115
-0.39783314 -0.93896884 0.74883121
-0.38626933 -0.94378501 0.74883133
-0.37464717 -0.94845855 0.74883133
-0.36296847 -0.95298898 0.74883133
-0.35123506 -0.95737582 0.74883151
-0.3394486 -0.96161801 0.74883151
-0.32761094 -0.96571517 0.74883157
-0.31572387 -0.9696666 0.74883163
-0.30378968 -0.97347349 0.74883306
-0.29180866 -0.97713035 0.74883205
-0.2797839 -0.98064065 0.74883169
-0.26771703 -0.98400342 0.74883169
-0.25560993 -0.98721814 0.74883205
-0.2434641 -0.99028343 0.74883205
-0.23128155 -0.99319935 0.74883205
-0.21906407 -0.99596524 0.74883199
-0.20681356 -0.99858099 0.74883199
-0.19452274 -1.0009992 0.74879694
-0.18179201 -1.0009992 0.74706995
-0.16911794 -1.0009991 0.74546319
-0.15649639 -1.000999 0.74397528
-0.14392325 -1.0009991 0.74260527
-0.13139442 -1.000999 0.74135178
-0.11890594 -1.000999 0.74021411
-0.10645386 -1.000999 0.73919135
-0.094034262 -1.000999 0.73828256
-0.081643306 -1.000999 0.73748714
-0.069277145 -1.0009989 0.73680454
-0.057906248 -1.0181283 0.74883288
-0.045395672 -1.0187632 0.74883318
-0.02585787 -0.80160886 0.58893782
-0.016006477 -0.80172354 0.58883315
-0.0061572646 -0.80185962 0.58883315
0.0046963193 -1.0197632 0.74883318
0.017222272 -1.0196288 0.74883324
0.029745629 -1.0193404 0.74883336
0.042264499 -1.0188981 0.74883342
0.053846184 -1.0009985 0.73610878
0.066186659 -1.0009985 0.73665112
0.078547187 -1.0009984 0.73730546
0.090931572 -1.0009984 0.73807251
0.10334362 -1.0009984 0.73895282
0.11578722 -1.0009984 0.73994708
0.1282662 -1.0009984 0.74105591
0.14078453 -1.0009983 0.74228013
0.15334621 -1.0009983 0.74362093
0.16595523 -1.0009981 0.7450791
0.17861576 -1.0009983 0.74665606
0.19133186 -1.0009981 0.74835271
0.20374428 -0.99921501 0.74883431
0.21600282 -0.99663699 0.74883437
0.22822876 -0.99390852 0.74883437
0.24042028 -0.99103022 0.74883449
0.25257552 -0.9880023 0.74883455
0.26469293 -0.98482633 0.74883538
0.27677041 -0.9815017 0.74883616
0.28880483 -0.97802454 0.74883354
0.30079716 -0.97440481 0.74883479
0.31274363 -0.97063655 0.74883491
0.3246429 -0.96672171 0.74883491
0.33649322 -0.96266115 0.74883497
0.34829271 -0.95845515 0.74883497
0.36003974 -0.95410478 0.74883509
0.37173235 -0.94961023 0.74883509
0.38336891 -0.94497246 0.74883515
0.39494765 -0.94019216 0.74883527
0.40646672 -0.93526983 0.74883527
0.41792458 -0.9302066 0.74883538
0.42931932 -0.92500293 0.74883544
0.44064933 -0.91965973 0.74883556
0.45191276 -0.91417766 0.74883556
0.463108 -0.90855759 0.74883556
0.47423342 -0.9028005 0.74883568
0.48528728 -0.89690721 0.74883574
0.49626791 -0.89087856 0.7488358
0.5071736 -0.88471544 0.7488358
0.51800281 -0.87841886 0.74883586
0.52875388 -0.87198979 0.74883592
0.53942519 -0.8654291 0.74883604
0.55001509 -0.85873783 0.7488361
0.56052196 -0.85191703 0.74883616
0.57094425 -0.84496754 0.74883616
0.58128035 -0.83789057 0.74883616
0.59152883 -0.83068722 0.74883622
0.60168803 -0.8233586 0.74883628
0.60506952 -0.80698723 0.74065101
0.60506958 -0.78666568 0.72876692
0.60506946 -0.76698279 0.71736449
0.60506946 -0.74790376 0.70641851
0.60506946 -0.72939533 0.69590491
0.60506952 -0.71142721 0.68580168
0.60506946 -0.69397062 0.67608809
0.60506952 -0.67699921 0.66674513
0.60506952 -0.66048801 0.65775472
0.60506952 -0.64441371 0.64910018
0.60506946 -0.6287545 0.64076579
0.60506952 -0.61349022 0.6327371
0.60506952 -0.5986014 0.62500018
0.60506946 -0.58407009 0.61754221
0.60556227 -0.57034361 0.61084831
0.60506958 -0.45512819 0.5559727
0.60506976 -0.44359645 0.55092412
0.60506976 -0.43227038 0.54604793
0.60506946 -0.42114118 0.54133797
0.60506946 -0.41020089 0.53678912
0.60506952 -0.39944136 0.53239578
0.60506946 -0.38885489 0.52815276
0.60506952 -0.3784343 0.52405536
0.60506946 -0.36817262 0.52009887
0.60506958 -0.35806322 0.51627904
0.60506928 -0.34809956 0.51259148
0.60506928 -0.33827591 0.50903261
0.60506946 -0.32858634 0.50559878
0.60506922 -0.31902501 0.5022859
0.6050694 -0.30958694 0.49909133
0.6050694 -0.30026668 0.49601138
0.6050694 -0.29105937 0.49304309
0.60506946 -0.28196028 0.49018371
0.6050694 -0.27296469 0.48743036
0.60506934 -0.26406828 0.48478049
0.54506952 -0.22995403 0.43441269
0.54506952 -0.22210707 0.43220553
0.54506952 -0.21433826 0.43008527
0.54815185 -0.2078127 0.43047056
0.55159926 -0.20140556 0.43120229
0.5548076 -0.19488737 0.43180627
0.5579446 -0.18832259 0.43241459
0.56100947 -0.18171193 0.43302721
0.56400138 -0.17505601 0.43364397
0.56691968 -0.16835557 0.43426487
0.56976366 -0.16161132 0.43488979
0.57253265 -0.154824 0.43551877
0.57474017 -0.14786936 0.43578333
0.57651317 -0.14079836 0.43578333
0.57819915 -0.13370612 0.43578333
0.57979792 -0.12659369 0.43578333
0.58130926 -0.11946218 0.43578339
0.58273286 -0.11231264 0.43578339
0.58406848 -0.10514614 0.43578339
0.58531612 -0.097963803 0.43578351
0.58647531 -0.090766653 0.43578351
0.58754599 -0.08355581 0.43578351
0.58852804 -0.076332361 0.43578351
0.58942127 -0.069097392 0.43578351
0.59022558 -0.061852001 0.43578351
0.59094077 -0.054597273 0.43578351
0.59156686 -0.04733431 0.43578351
0.59210366 -0.040064201 0.43578351
0.59255111 -0.032788046 0.43578351
0.59290916 -0.025506947 0.43578351
0.59317774 -0.018221997 0.43578351
0.59335685 -0.010934298 0.43578351
0.59344637 -0.0036449493 0.43578351
0.59344637 0.0036449493 0.43578351
0.59335685 0.010934298 0.43578351
0.59317774 0.018221997 0.43578351
0.59290916 0.025506947 0.43578351
0.59255111 0.032788046 0.43578351
0.59210366 0.040064201 0.43578351
0.59156686 0.04733431 0.43578351
0.59094077 0.054597273 0.43578351
0.59022558 0.061852001 0.43578351
0.58942127 0.069097392 0.43578351
0.58852804 0.076332361 0.43578351
0.58754599 0.08355581 0.43578351
0.58647531 0.090766653 0.43578351
0.58531612 0.097963803 0.43578351
0.58406848 0.10514614 0.43578339
0.58273286 0.11231264 0.43578339
0.58130926 0.11946218 0.43578339
0.57979792 0.12659369 0.43578333
0.57819915 0.13370612 0.43578333
0.57651317 0.14079836 0.43578333
0.57474017 0.14786936 0.43578333
0.57206839 0.15469845 0.43516558
0.56930155 0.16148025 0.43453708
0.56645995 0.16821904 0.43391272
0.56354398 0.17491403 0.4332923
0.5605545 0.18156455 0.43267605
0.55749214 0.18816987 0.43206391
0.55435771 0.19472933 0.43145612
0.55115193 0.20124224 0.43085262
0.54689765 0.20733722 0.42948562
0.54506844 0.21433783 0.43008441
0.54506838 0.22210658 0.4322046
0.60506743 0.25526595 0.48223016
0.60506809 0.26406774 0.48477951
0.60506785 0.272964 0.48742911
0.60506773 0.28195944 0.49018231
0.60506797 0.29105869 0.49304193
0.60506749 0.30026573 0.49600977
0.60506749 0.30958596 0.49908975
0.60506797 0.31902432 0.50228482
0.60506779 0.32858542 0.50559735
0.60506737 0.33827484 0.509031
0.60506731 0.34809843 0.51258975
0.60506773 0.35806215 0.51627749
0.60506767 0.36817151 0.52009732
0.60506719 0.37843287 0.52405334
0.60506707 0.38885337 0.52815074
0.60506737 0.39943996 0.53239393
0.60506696 0.4101992 0.53678685
0.60506767 0.42113996 0.54133636
0.60506725 0.43226859 0.54604566
0.60506707 0.44359446 0.55092168
0.60506743 0.45512661 0.55597073
0.60506666 0.46687296 0.56119758
0.60506672 0.47884482 0.56661081
0.60506696 0.49105179 0.57221669
0.60506719 0.50350469 0.57802284
0.60506612 0.51621372 0.58403569
0.60506678 0.5291934 0.5902667
0.6050666 0.5424543 0.59672225
0.60506606 0.55601025 0.60341233
0.60506654 0.56987667 0.61034822
0.60506636 0.58406711 0.61753905
0.60506618 0.59859812 0.62499672
0.6050663 0.61348695 0.63273376
0.60506588 0.6287508 0.64076203
0.60506648 0.64441049 0.64909697
0.60506648 0.66048467 0.65775144
0.605066 0.67699528 0.66674125
0.60506588 0.69396651 0.6760841
0.60506564 0.71142268 0.68579733
0.60506576 0.72939092 0.69590068
0.60506582 0.74789923 0.70641422
0.6050657 0.76697809 0.71736008
0.60506582 0.78666085 0.72876245
0.60506529 0.80698162 0.74064589
0.58388954 0.79900289 0.72668505
0.56896645 0.79900283 0.72027379
0.55430222 0.79900277 0.71408153
0.53988588 0.79900283 0.7081008
0.52570683 0.79900271 0.70232445
0.51175511 0.79900265 0.69674581
0.4980213 0.79900265 0.69135875
0.48449618 0.79900253 0.68615693
0.47117105 0.79900247 0.68113488
0.4580377 0.79900259 0.67628723
0.44508791 0.79900247 0.67160857
0.43231425 0.79900253 0.66709429
0.41970915 0.79900241 0.66273946
0.40726575 0.79900235 0.65853989
0.39497727 0.79900241 0.65449142
0.38283703 0.79900229 0.65058988
0.37083897 0.79900229 0.64683175
0.3589769 0.79900223 0.64321315
0.34724507 0.79900229 0.63973093
0.33563781 0.79900217 0.63638157
0.32414973 0.79900211 0.63316226
0.3127754 0.79900157 0.63006943
0.3015106 0.79900265 0.6271022
0.29034904 0.79900187 0.62425512
0.2792871 0.79900229 0.62152797
0.26831952 0.79900193 0.61891699
0.25744227 0.79900229 0.61642098
0.24665052 0.79900169 0.61403668
0.23594055 0.79900199 0.6117633
0.2253079 0.79900187 0.60959804
0.21474868 0.79900187 0.60753947
0.20425896 0.79900193 0.60558587
0.19383489 0.79900175 0.60373545
0.1834728 0.79900175 0.601987
0.173169 0.79900175 0.60033894
0.16291992 0.79900175 0.59878999
0.15272205 0.79900163 0.59733886
0.14257196 0.79900163 0.59598446
0.13246629 0.79900169 0.59472585
0.12240168 0.79900163 0.59356183
0.1123749 0.79900169 0.59249163
0.10238268 0.79900157 0.59151423
0.092421904 0.79900169 0.59062922
0.082489364 0.79900157 0.58983564
0.072581992 0.79900146 0.58913285
0.062696725 0.79900151 0.58852059
0.05283048 0.7990014 0.58799815
0.042980265 0.79900151 0.5875653
0.033143051 0.7990014 0.5872215
0.023315858 0.79900128 0.58696663
0.013495715 0.79900134 0.58680063
-0.006157266 0.8018598 0.58883327
-0.016006477 0.80172354 0.58883315
-0.02585811 0.80161631 0.5889433
-0.045443345 0.79900116 0.58766496
-0.055297289 0.79900122 0.58812028
-0.065167993 0.7990011 0.58866501
-0.075058505 0.79900116 0.58929992
-0.084971868 0.79900116 0.59002525
-0.094911166 0.79900116 0.59084171
-0.10487949 0.79900092 0.59174961
-0.11488005 0.79900098 0.59275013
-0.12491596 0.79900092 0.59384364
-0.13499053 0.79900092 0.59503126
-0.14510699 0.79900086 0.59631377
-0.15526871 0.79900098 0.59769225
-0.16547902 0.79900086 0.59916764
-0.17574145 0.79900086 0.60074121
-0.18605947 0.79900086 0.60241425
-0.1964367 0.7990008 0.60418802
-0.2068768 0.7990008 0.60606402
-0.21738352 0.79900074 0.60804373
-0.22796074 0.79900086 0.61012888
-0.23861229 0.79900068 0.61232084
-0.24934235 0.79900074 0.61462194
-0.26015496 0.79900074 0.61703372
-0.27105445 0.79900074 0.61955845
-0.2820451 0.79900056 0.62219799
-0.2931315 0.79900056 0.624955
-0.30431831 0.7990005 0.62783164
-0.31561029 0.7990005 0.63083053
-0.32701239 0.79900044 0.63395435
-0.33852968 0.79900038 0.63720584
-0.35016757 0.79900044 0.6405881
-0.36193138 0.79900038 0.64410406
-0.37382689 0.79900038 0.64775723
-0.38585991 0.79900038 0.65155083
-0.39803651 0.79900026 0.65548861
-0.41036311 0.79900026 0.65957451
-0.4228462 0.79900014 0.66381234
-0.43549278 0.79900026 0.66820669
-0.44830975 0.7990002 0.67276162
-0.46130461 0.79900014 0.67748195
-0.47448516 0.79900008 0.68237275
-0.48785949 0.7990002 0.6874392
-0.50143576 0.79899997 0.69268656
-0.51522321 0.79899997 0.69812101
-0.52923077 0.79900002 0.7037484
-0.54346806 0.79899985 0.70957506
-0.55794537 0.79899985 0.71560806
-0.57267338 0.79900008 0.72185451
-0.5876627 0.79899979 0.72832137
-0.6029256 0.79899991 0.73501748
-0.60616821 0.7831021 0.72718799
-0.60616821 0.76353812 0.71588171
-0.60616803 0.74457026 0.70502621
-0.60616797 0.72616631 0.69459826
-0.60616785 0.70829624 0.68457609
-0.60616779 0.69093192 0.67493945
-0.60616773 0.67404723 0.66566944
-0.60616755 0.65761751 0.65674824
-0.6061675 0.64161998 0.64815962
-0.60616744 0.62603325 0.63988805
-0.60616732 0.61083692 0.63191897
-0.6061672 0.59601229 0.62423903
-0.60616726 0.5815416 0.61683559
-0.60616714 0.56740797 0.60969651
-0.60616708 0.55359566 0.6028108
-0.6061669 0.54008979 0.59616762
-0.60616696 0.52687645 0.5897575
-0.60616684 0.5139423 0.58357078
-0.60616684 0.50127482 0.57759881
-0.60616666 0.48886207 0.57183319
-0.60616672 0.47669297 0.56626624
-0.60616648 0.46475655 0.56089026
-0.60616654 0.45304307 0.55569863
-0.60616648 0.44154266 0.55068451
-0.60616636 0.4302462 0.54584169
-0.60616642 0.41914517 0.54116434
-0.60616636 0.40823102 0.53664666
-0.60616624 0.39749599 0.53228337
-0.6061663 0.38693264 0.52806973
-0.60616618 0.37653351 0.52400047
-0.60616612 0.36629197 0.52007139
-0.60616612 0.35620135 0.51627821
-0.60616606 0.34625539 0.51261663
-0.60616606 0.33644804 0.50908303
-0.60616595 0.32677349 0.50567347
-0.60616595 0.31722626 0.5023846
-0.60616589 0.30780101 0.4992131
-0.60616589 0.29849264 0.49615586
-0.60616577 0.28929615 0.49320969
-0.60616577 0.28020689 0.49037191
-0.60616571 0.2712203 0.48763973
-0.60616565 0.26233193 0.48501059
-0.60616565 0.2535376 0.48248211
-0.60616565 0.24483319 0.48005196
-0.60616553 0.23621468 0.47771779
-0.60616553 0.22767834 0.47547767
-0.60616547 0.2192204 0.47332951
-0.60616547 0.21083729 0.47127149
-0.60616535 0.20252548 0.46930176
-0.60616541 0.19428168 0.46741876
-0.60616529 0.18610248 0.46562064
-0.60616547 0.17798483 0.46390623
-0.60616535 0.16992545 0.46227372
-0.60616529 0.16192141 0.460722
-0.60616523 0.15396973 0.45924971
-0.60616523 0.14606753 0.45785567
-0.60616523 0.13821198 0.4565388
-0.60616517 0.1304003 0.45529789
-0.60616517 0.12262981 0.45413211
-0.60616511 0.11489784 0.45304045
-0.60616511 0.10720181 0.45202211
-0.60616511 0.099539131 0.45107621
-0.60616505 0.091907308 0.45020205
-0.60616505 0.084303871 0.44939896
-0.60616499 0.076726362 0.4486663
-0.60616505 0.069172397 0.44800359
-0.60616505 0.06163957 0.44741017
-0.60616499 0.054125536 0.44688565
-0.60616499 0.046627972 0.44642967
-0.60616493 0.039144564 0.44604182
-0.60616487 0.031673022 0.44572183
-0.60616481 0.024211064 0.4454695
-0.60616481 0.01675643 0.44528463
-0.60616475 0.0093068564 0.44516701
-0.60616481 0.0018600932 0.4451167
-0.60616481 -0.0055861096 0.44513351
-0.60616475 -0.013033996 0.44521743
-0.60616475 -0.02048582 0.44536868
-0.60616469 -0.027943831 0.44558722
-0.60616463 -0.035410292 0.44587329
-0.60616469 -0.042887483 0.44622719
-0.60616475 -0.050377689 0.44664913
-0.60616463 -0.057883181 0.44713923
-0.60616452 -0.065406308 0.44769809
-0.60616457 -0.072949417 0.44832614
-0.60616463 -0.080514871 0.44902384
-0.60616463 -0.088105038 0.44979164
-0.60616457 -0.095722355 0.45063016
-0.60616457 -0.10336929 0.45154008
-0.60616463 -0.11104834 0.45252219
-0.60616452 -0.118762 0.45357701
-0.60616452 -0.12651291 0.45470566
-0.60616446 -0.13430364 0.45590881
-0.60616446 -0.14213693 0.45718759
-0.60616446 -0.15001546 0.45854294
-0.60616446 -0.15794203 0.45997593
-0.60616452 -0.16591954 0.46148783
-0.6061644 -0.17395084 0.46307969
-0.6061644 -0.18203898 0.464753
-0.6061644 -0.19018702 0.4665091
-0.60616434 -0.1983981 0.46834943
-0.60616452 -0.20667554 0.47027573
-0.6061644 -0.21502252 0.47228929
-0.60616428 -0.22344257 0.47439206
-0.60616428 -0.23193927 0.47658595
-0.60616434 -0.24051622 0.47887287
-0.6061644 -0.24917722 0.48125485
-0.60616428 -0.25792605 0.4837338
-0.60616428 -0.26676688 0.48631233
-0.60616422 -0.27570379 0.4889926
-0.60616428 -0.28474119 0.4917773
-0.60616422 -0.29388344 0.49466887
-0.60616428 -0.30313528 0.49767026
-0.60616428 -0.31250149 0.50078428
-0.60616422 -0.32198703 0.50401402
-0.60616428 -0.33159727 0.50736278
-0.60616422 -0.34133747 0.51083392
-0.60616422 -0.35121337 0.514431
-0.60616422 -0.36123091 0.5181579
-0.60616422 -0.37139621 0.52201855
-0.60616422 -0.38171563 0.52601707
-0.60616416 -0.39219597 0.53015792
-0.60616422 -0.40284431 0.53444588
-0.6061641 -0.41366783 0.53888559
-0.60616392 -0.4246743 0.54348224
-0.60616434 -0.43587232 0.54824203
-0.60616457 -0.44726977 0.55316997
-0.60616368 -0.45887491 0.55827123
-0.60616416 -0.47069895 0.56355458
-0.60616434 -0.48275051 0.56902528
-0.60616416 -0.49503994 0.57469046
-0.60616416 -0.50757861 0.58055824
-0.60616416 -0.52037787 0.58663654
-0.60616416 -0.53345001 0.59293383
-0.6061641 -0.54680783 0.59945911
-0.6061641 -0.5604651 0.60622227
-0.60616422 -0.57443619 0.61323339
-0.60616416 -0.5887363 0.62050319
-0.6061641 -0.60338175 0.62804329
-0.60616416 -0.61839002 0.63586622
-0.60616416 -0.63377905 0.64398474
-0.60616416 -0.64956856 0.65241301
-0.60616416 -0.66577935 0.66116589
-0.60616428 -0.68243372 0.67025948
-0.60616416 -0.69955498 0.67971039
-0.60616416 -0.71716875 0.68953735
-0.60616422 -0.73530215 0.69975978
-0.6061641 -0.75398397 0.7103985
-0.60616416 -0.77324575 0.72147644
-0.60616416 -0.7931208 0.73301768
-0.60616416 -0.81364518 0.74504834
-0.59914982 -0.8251971 0.74883014
-0.58896834 -0.83249462 0.7488302
-0.57869798 -0.83966649 0.74883032
-0.56834024 -0.84671158 0.74883032
-0.55789679 -0.85362905 0.74883038
-0.54736918 -0.86041766 0.74883044
-0.53675896 -0.86707646 0.7488305
-0.52606773 -0.87360442 0.74883056
-0.51529711 -0.88000059 0.74883068
-0.50444877 -0.88626397 0.74883074
-0.49352428 -0.89239347 0.74883074
-0.48252529 -0.89838839 0.74883074
-0.47145352 -0.90424782 0.7488308
-0.46031064 -0.90997082 0.74883085
-0.44909829 -0.91555649 0.74883091
-0.43781814 -0.92100394 0.74883091
-0.42647195 -0.92631251 0.74883097
-0.41506138 -0.93148118 0.74883097
-0.40358829 -0.93650961 0.74883121
-0.39205417 -0.94139642 0.74883121
-0.38046098 -0.94614142 0.74883133
-0.36881033 -0.95074344 0.74883133
-0.35710406 -0.95520216 0.74883151
-0.34534386 -0.95951664 0.74883151
-0.33353153 -0.96368629 0.74883151
-0.32166892 -0.96771061 0.74883157
-0.30975777 -0.97158891 0.74883163
-0.29779986 -0.97532064 0.74883169
-0.28579703 -0.9789052 0.74883181
-0.27375102 -0.98234183 0.74883169
-0.26166379 -0.98563063 0.74883193
-0.24953708 -0.9887706 0.74883205
-0.23737265 -0.99176121 0.74883205
-0.22517237 -0.99460208 0.74883199
-0.21293814 -0.99729294 0.74883199
-0.20067184 -0.99983352 0.74883211
-0.18814516 -1.0009992 0.74791771
-0.17544329 -1.000999 0.74625093
-0.16279605 -1.0009991 0.74470389
-0.15019923 -1.0009991 0.74327511
-0.13764876 -1.0009991 0.74196351
-0.12514062 -1.0009991 0.74076813
-0.11267083 -1.000999 0.73968798
-0.1002355 -1.000999 0.73872238
-0.087830707 -1.0009989 0.7378704
-0.075452633 -1.0009989 0.73713154
-0.064153574 -1.0177532 0.74883246
-0.051647142 -1.0184649 0.74883282
-0.039132897 -1.0190228 0.74883306
-0.020926509 -0.80161017 0.58883315
-0.0095713623 -0.69273907 0.50873572
-0.0015622544 -1.0197729 0.74883318
0.010964288 -1.0197153 0.74883324
0.023489179 -1.0195037 0.74883336
0.036010526 -1.0191383 0.74883336
0.04852644 -1.0186192 0.74883342
0.06001886 -1.0009985 0.73636609
0.072368897 -1.0009984 0.73696446
0.084740885 -1.0009984 0.73767519
0.097138643 -1.0009984 0.73849887
0.10956598 -1.0009983 0.73943597
0.12202681 -1.0009984 0.74048752
0.13452497 -1.0009983 0.74165392
0.14706452 -1.0009984 0.74293649
0.15964937 -1.0009983 0.74433589
0.17228366 -1.0009984 0.74585342
0.18497148 -1.0009983 0.74749005
0.19760804 -1.0004466 0.74883425
0.20988217 -0.99794382 0.74883431
0.22212465 -0.99529052 0.74883437
0.2343336 -0.99248701 0.74883449
0.24650721 -0.98953378 0.74883455
0.2586439 -0.98643225 0.74883538
0.27074125 -0.98318082 0.74883538
0.28279707 -0.97977853 0.74883354
0.29481131 -0.97623229 0.74883461
0.30678076 -0.97253764 0.74883491
0.31870383 -0.96869594 0.74883491
0.3305788 -0.96470803 0.74883491
0.34240392 -0.96057463 0.74883497
0.35417742 -0.95629644 0.74883509
0.36589742 -0.95187372 0.74883509
0.3775622 -0.94730741 0.74883509
0.38917002 -0.94259822 0.74883515
0.40071914 -0.93774682 0.74883527
0.41220778 -0.9327538 0.74883527
0.42363432 -0.92762029 0.74883544
0.43499681 -0.92234659 0.74883544
0.44629377 -0.91693389 0.74883556
0.45752329 -0.91138262 0.74883556
0.46868381 -0.90569395 0.74883568
0.47977358 -0.89986855 0.74883568
0.49079102 -0.89390743 0.74883574
0.50173438 -0.88781142 0.7488358
0.51260203 -0.88158143 0.74883586
0.52339232 -0.87521833 0.74883586
0.53410369 -0.86872339 0.74883604
0.54473448 -0.8620972 0.7488361
0.55528295 -0.8553409 0.7488361
0.56574774 -0.84845561 0.74883616
0.57612711 -0.84144223 0.74883616
0.58641958 -0.83430195 0.74883622
0.59662354 -0.82703567 0.74883622
0.60506952 -0.8173914 0.74677765
0.60506952 -0.79673648 0.73464251
0.60506952 -0.77673918 0.72300279
0.60506952 -0.75736278 0.71183193
0.60506952 -0.73857313 0.70110512
0.60506946 -0.72033876 0.69079947
0.60506952 -0.70263004 0.68089372
0.60506946 -0.68541938 0.67136788
0.60506946 -0.6686812 0.66220343
0.60506946 -0.65239137 0.65338308
0.60506952 -0.63652754 0.64489073
0.60506952 -0.62106842 0.63671106
0.60506946 -0.60599428 0.62882996
0.60506958 -0.59128672 0.62123436
0.60506958 -0.5769279 0.61391145
0.61037034 -0.56783301 0.61216605
0.60506904 -0.44933113 0.55342394
0.60506958 -0.43790376 0.54846281
0.60506952 -0.42667735 0.54367059
0.60506952 -0.41564381 0.53904206
0.60506952 -0.40479496 0.53457171
0.60506946 -0.39412287 0.53025413
0.60506946 -0.38362032 0.5260846
0.60506952 -0.37328011 0.52205825
0.6050694 -0.36309534 0.5181706
0.60506904 -0.35305953 0.51441723
0.60506988 -0.34316719 0.5107953
0.6050691 -0.33341089 0.50729877
0.60506916 -0.3237862 0.50392598
0.6050694 -0.31428736 0.50067294
0.6050694 -0.30490881 0.497536
0.6050694 -0.29564568 0.49451229
0.6050694 -0.28649309 0.49159884
0.6050694 -0.27744636 0.48879287
0.60506934 -0.26850092 0.48609158
0.60506934 -0.25965255 0.48349264
0.54506952 -0.22601755 0.43329728
0.54506946 -0.2182101 0.43113378
0.54580033 -0.21076132 0.42963156
0.54996973 -0.2046445 0.43090218
0.5532136 -0.19814985 0.43150398
0.55638629 -0.19160825 0.43211013
0.55948728 -0.18502042 0.4327206
0.56251574 -0.17838703 0.43333533
0.56547087 -0.17170875 0.43395415
0.56835204 -0.1649863 0.43457705
0.57115859 -0.1582204 0.435204
0.57382184 -0.15139388 0.43578333
0.57563818 -0.14433388 0.43578333
0.57736772 -0.13725212 0.43578333
0.57901007 -0.13014965 0.43578333
0.58056509 -0.12302753 0.43578333
0.58203256 -0.11588687 0.43578339
0.58341217 -0.1087287 0.43578339
0.58470374 -0.10155413 0.43578339
0.58590722 -0.094364263 0.43578351
0.58702213 -0.087160125 0.43578351
0.58804852 -0.079942837 0.43578351
0.5889861 -0.072713487 0.43578351
0.58983487 -0.065473162 0.43578351
0.59059459 -0.058222964 0.43578351
0.5912652 -0.050963979 0.43578351
0.59184664 -0.043697301 0.43578351
0.59233874 -0.03642403 0.43578351
0.59274149 -0.029145265 0.43578351
0.59305477 -0.021862101 0.43578351
0.59327853 -0.014575639 0.43578351
0.59341282 -0.0072869766 0.43578351
0.59345758 2.7849899e-06 0.43578351
0.54506892 -2.5579106e-06 0.44444507
0.54506892 0.0066933241 0.44447857
0.54506892 0.013391226 0.44457912
0.54506886 0.020093171 0.44474688
0.5450688 0.026801188 0.4449819
0.54506886 0.033517316 0.44528446
0.5450688 0.040243596 0.44565469
0.6050685 0.052153751 0.49519762
0.60506856 0.059649859 0.49575996
0.60506839 0.067164131 0.49639839
0.60506845 0.07469894 0.49711376
0.60506833 0.082256615 0.49790627
0.60506839 0.0898396 0.49877685
0.60506833 0.097450286 0.49972594
0.60506839 0.10509116 0.50075442
0.60506839 0.1127647 0.501863
0.60506827 0.12047343 0.50305247
0.60506827 0.12821999 0.50432396
0.60506827 0.136007 0.50567842
0.60506827 0.14383711 0.50711685
0.60506815 0.15171306 0.50864035
0.60506815 0.15963772 0.51025039
0.60506809 0.16761389 0.51194811
0.60506815 0.17564456 0.513735
0.60506815 0.1837327 0.51561248
0.60506803 0.19188137 0.517582
0.60506803 0.20009382 0.51964545
0.60506791 0.20837322 0.52180433
0.60506797 0.21672302 0.52406079
0.60506785 0.22514659 0.52641654
0.60506791 0.23364756 0.5288738
0.60506779 0.24222951 0.53143454
0.60506773 0.2508963 0.53410125
0.60506785 0.2596519 0.53687638
0.60506773 0.26850024 0.53976226
0.60506767 0.27744558 0.54276168
0.60506767 0.28649229 0.54587746
0.60506761 0.29564482 0.54911256
0.60506755 0.30490792 0.55247009
0.60506749 0.31428638 0.55595326
0.60506749 0.32378533 0.55956572
0.60506743 0.33340997 0.56331092
0.60506731 0.34316576 0.56719267
0.60506743 0.35305855 0.57121533
0.60506737 0.36309412 0.57538277
0.60506719 0.37327868 0.5796994
0.60506719 0.38361886 0.58417028
0.60506707 0.39412135 0.58880013
0.60506701 0.40479326 0.59359425
0.60506707 0.41564214 0.59855831
0.60506696 0.42667556 0.60369778
0.60506696 0.43790185 0.60901898
0.60506696 0.44932961 0.61452848
0.60506678 0.46096757 0.62023276
0.60506672 0.47282559 0.62613946
0.60506678 0.48491353 0.63225621
0.6050666 0.49724171 0.63859063
0.60506654 0.50982141 0.64515179
0.60506636 0.52266413 0.65194845
0.60506642 0.53578252 0.65899056
0.60506636 0.54918933 0.66628796
0.60506618 0.56289846 0.67385155
0.6050663 0.5769248 0.68169314
0.60506612 0.59128332 0.68982434
0.605066 0.60599083 0.69825858
0.60506606 0.6210649 0.70700985
0.60506582 0.63652366 0.71609235
0.60506582 0.6523875 0.7255224
0.6050657 0.66867703 0.7353164
0.60506558 0.68541497 0.74549252
0.59927654 0.695903 0.74883628
0.59068316 0.70321172 0.74883628
0.58200061 0.71041429 0.74883622
0.57322985 0.71750921 0.74883568
0.56437343 0.72449678 0.7488361
0.55543143 0.73137462 0.7488361
0.54640567 0.73814207 0.7488361
0.53729743 0.74479818 0.7488361
0.52810806 0.75134188 0.74883598
0.51883906 0.75777221 0.74883598
0.50949174 0.76408803 0.74883586
0.50006759 0.77028877 0.74883586
0.49056789 0.77637315 0.74883574
0.48099422 0.78234041 0.74883568
0.47134799 0.78818965 0.74883562
0.46163064 0.79391998 0.74883556
0.45154527 0.79900253 0.74834108
0.4386844 0.79900247 0.74323767
0.42599589 0.79900253 0.73831403
0.41347247 0.79900241 0.73356515
0.40110728 0.79900241 0.72898626
0.38889372 0.79900253 0.72457296
0.37682521 0.79900229 0.72032058
0.36489585 0.79900235 0.71622539
0.35309952 0.79900223 0.71228331
0.3414306 0.79900217 0.70849073
0.32988364 0.79900223 0.70484424
0.3184531 0.79900211 0.7013402
0.30713403 0.79900217 0.69797575
0.29592133 0.79900211 0.69474775
0.28481019 0.79900205 0.69165325
0.27379596 0.79900211 0.68868977
0.26287407 0.79900211 0.68585461
0.25204006 0.79900199 0.68314523
0.24128973 0.79900199 0.68055958
0.23061885 0.79900193 0.67809528
0.22002339 0.79900193 0.67575043
0.20949943 0.79900211 0.67352319
0.19904292 0.79900175 0.67141104
0.18865028 0.79900175 0.66941315
0.1783177 0.7990014 0.66752726
0.16804178 0.79900193 0.66575283
0.15781862 0.79900134 0.66408682
0.14764513 0.79900169 0.66252971
0.13751765 0.79900163 0.66107893
0.12743288 0.79900157 0.65973389
0.1173876 0.79900169 0.65849364
0.10737848 0.79900163 0.65735686
0.097402364 0.79900163 0.6563229
0.08745607 0.79900146 0.6553908
0.077536516 0.79900157 0.65456027
0.067640558 0.79900146 0.65383005
0.057765171 0.79900134 0.65320003
0.047907323 0.79900146 0.65266973
0.038063977 0.79900146 0.65223861
0.028232146 0.79900146 0.65190631
0.018408844 0.79900134 0.65167248
0.0085911043 0.79900128 0.65153724
-0.0099767325 0.72207826 0.58883327
-0.018845657 0.72190118 0.58883327
-0.027745042 0.72248244 0.5895409
-0.060226589 0.79900122 0.65334773
-0.070106819 0.79900128 0.65400261
-0.08000835 0.79900116 0.65475768
-0.089934282 0.79900116 0.65561354
-0.099887699 0.7990011 0.65657079
-0.10987173 0.79900104 0.65763021
-0.11988956 0.79900098 0.65879267
-0.1299444 0.7990011 0.66005915
-0.14003947 0.79900104 0.66143036
-0.1501781 0.79900098 0.66290748
-0.16036367 0.79900098 0.66449177
-0.17059959 0.79900086 0.66618437
-0.18088937 0.79900098 0.66798681
-0.1912365 0.7990008 0.66990012
-0.20164469 0.79900086 0.67192632
-0.21211758 0.7990008 0.67406678
-0.22265904 0.7990008 0.67632329
-0.23327287 0.79900068 0.67869759
-0.24396314 0.79900062 0.68119192
-0.25473395 0.79900074 0.68380827
-0.26558939 0.79900062 0.68654865
-0.27653387 0.79900062 0.68941557
-0.28757182 0.79900062 0.69241148
-0.29870781 0.79900062 0.69553894
-0.30994657 0.79900062 0.69880074
-0.32129288 0.79900044 0.70219952
-0.3327519 0.79900044 0.70573872
-0.34432876 0.79900038 0.70942134
-0.35602885 0.79900038 0.71325076
-0.36785775 0.79900032 0.71723056
-0.37982121 0.79900038 0.72136456
-0.39192522 0.79900032 0.72565651
-0.40417594 0.79900026 0.73011076
-0.41657993 0.79900026 0.73473155
-0.42914379 0.7990002 0.73952347
-0.44187453 0.79900014 0.74449134
-0.45428842 0.79813743 0.74883097
-0.4640581 0.79249692 0.74883097
-0.47375771 0.78673679 0.74883085
-0.48338586 0.78085798 0.74883085
-0.49294105 0.77486128 0.7488308
-0.50242186 0.76874769 0.74883068
-0.51182681 0.76251805 0.74883056
-0.52115458 0.75617343 0.7488305
-0.53040373 0.74971473 0.7488305
-0.53957283 0.74314284 0.74883044
-0.54866058 0.73645896 0.74883044
-0.55766547 0.72966385 0.74883044
-0.56658655 0.72275907 0.7488308
-0.57542115 0.71574402 0.74882996
-0.58416998 0.70862222 0.74883038
-0.5928303 0.70139307 0.74883038
-0.60140115 0.69405812 0.74883038
-0.60616803 0.68243796 0.74427116
-0.60616791 0.66578352 0.73417348
-0.60616791 0.64957261 0.72445405
-0.60616785 0.63378292 0.71509504
-0.60616839 0.61839432 0.70608068
-0.60616761 0.60338527 0.69739312
-0.60616755 0.58873963 0.68902028
-0.6061675 0.57443935 0.6809476
-0.60616738 0.56046808 0.67316228
-0.60616738 0.54681081 0.66565233
-0.60616726 0.53345275 0.65840626
-0.60616714 0.52038044 0.6514135
-0.60616708 0.50758106 0.64466399
-0.60616702 0.49504226 0.63814825
-0.6061669 0.48275253 0.63185716
-0.6061669 0.47070107 0.62578261
-0.60616678 0.45887724 0.6199162
-0.60616678 0.44727141 0.61425078
-0.60616678 0.43587404 0.60877889
-0.60616666 0.42467624 0.60349393
-0.6061666 0.41366953 0.59838939
-0.6061666 0.40284589 0.59345931
-0.60616654 0.39219752 0.58869791
-0.60616642 0.38171706 0.58409965
-0.60616648 0.37139758 0.57965964
-0.60616636 0.36123219 0.57537264
-0.60616624 0.35121459 0.57123411
-0.6061663 0.34133863 0.56723982
-0.60616618 0.33159831 0.56338537
-0.60616624 0.32198811 0.55966687
-0.60616618 0.31250244 0.5560804
-0.60616606 0.30313617 0.55262244
-0.60616601 0.29388428 0.54928958
-0.60616595 0.28474197 0.54607868
-0.60616601 0.27570459 0.54298657
-0.60616601 0.26676765 0.54001033
-0.60616589 0.25792673 0.53714699
-0.60616583 0.24917781 0.53439415
-0.60616589 0.24051684 0.53174925
-0.60616583 0.23193985 0.52920979
-0.60616583 0.22344315 0.52677369
-0.60616565 0.21502298 0.5244385
-0.60616571 0.20667595 0.52220249
-0.60616565 0.19839852 0.52006358
-0.60616565 0.19018741 0.51802003
-0.60616559 0.18203934 0.51606995
-0.60616565 0.17395118 0.51421189
-0.60616559 0.16591984 0.5124442
-0.60616559 0.15794234 0.51076543
-0.60616547 0.1500157 0.50917405
-0.60616541 0.14213715 0.50766903
-0.60616547 0.13430387 0.50624907
-0.60616541 0.12651311 0.50491297
-0.60616535 0.11876218 0.50365973
-0.60616529 0.11104847 0.50248826
-0.60616535 0.10336943 0.50139785
-0.60616535 0.095722474 0.50038737
-0.60616529 0.088105142 0.49945623
-0.60616529 0.08051496 0.49860364
-0.60616517 0.072949491 0.49782884
-0.60616523 0.06540639 0.4971315
-0.60616517 0.057883237 0.49651083
-0.60616517 0.050377723 0.49596646
-0.60616517 0.042887516 0.49549803
-0.60616505 0.035410319 0.495105
-0.60616517 0.027943851 0.49478737
-0.60616505 0.02048583 0.49454454
-0.60616511 0.013034004 0.49437663
-0.60616505 0.0055861115 0.49428335
-0.60616499 -0.0018600938 0.49426466
-0.60616493 -0.0093068592 0.49432051
-0.60616499 -0.016756436 0.49445111
-0.60616499 -0.024211071 0.49465638
-0.60616481 -0.031673022 0.49493644
-0.60616493 -0.039144564 0.4952918
-0.60616487 -0.046627965 0.49572235
-0.60616493 -0.054125533 0.49622875
-0.60616493 -0.061639555 0.49681112
-0.60616487 -0.069172375 0.49746999
-0.60616487 -0.07672634 0.4982059
-0.60616481 -0.084303841 0.49901944
-0.60616481 -0.09190727 0.49991116
-0.60616481 -0.099539094 0.50088185
-0.60616475 -0.10720175 0.50193208
-0.60616487 -0.1148978 0.50306296
-0.60616475 -0.12262973 0.50427502
-0.60616481 -0.13040023 0.50556958
-0.60616475 -0.13821188 0.50694734
-0.60616475 -0.14606743 0.50840968
-0.60616475 -0.1539696 0.50995755
-0.60616463 -0.16192123 0.51159233
-0.60616463 -0.16992527 0.51331538
-0.60616457 -0.17798458 0.51512796
-0.60616457 -0.18610226 0.51703179
-0.60616463 -0.19428143 0.51902837
-0.60616463 -0.20252523 0.5211193
-0.60616463 -0.21083701 0.52330649
-0.60616457 -0.21922007 0.52559167
-0.60616463 -0.227678 0.52797699
-0.60616452 -0.2362143 0.53046435
-0.60616463 -0.24483278 0.53305626
-0.60616452 -0.25353715 0.53575468
-0.60616457 -0.26233146 0.53856236
-0.60616446 -0.27121973 0.54148161
-0.60616446 -0.28020629 0.54451543
-0.60616457 -0.28929555 0.54766661
-0.60616452 -0.29849195 0.55093795
-0.60616452 -0.30780032 0.55433279
-0.60616457 -0.31722555 0.55785441
-0.60616475 -0.32677284 0.56150657
-0.60616404 -0.33644691 0.56529182
-0.60616398 -0.3462542 0.5692156
-0.60616475 -0.35620058 0.57328206
-0.6061635 -0.36629039 0.57749289
-0.60616428 -0.37653235 0.58185643
-0.60616446 -0.38693145 0.586375
-0.60616446 -0.39749479 0.59105402
-0.60616452 -0.4082298 0.59589899
-0.60616446 -0.4191438 0.60091537
-0.60616446 -0.43024486 0.6061092
-0.60616446 -0.44154119 0.61148667
-0.60616446 -0.45304152 0.61705434
-0.60616446 -0.46475494 0.62281913
-0.6061644 -0.47669116 0.62878847
-0.60616446 -0.48886028 0.63497013
-0.60616446 -0.50127286 0.6413722
-0.60616452 -0.51394033 0.64800358
-0.60616446 -0.5268743 0.65487319
-0.6061644 -0.54008752 0.66199106
-0.6061644 -0.55359322 0.66936749
-0.60616446 -0.56740546 0.67701352
-0.60616457 -0.58153903 0.68494081
-0.60616446 -0.59600955 0.69316155
-0.60616446 -0.610834 0.70168936
-0.60616452 -0.62603021 0.71053821
-0.60616446 -0.64161676 0.71972293
-0.60616446 -0.65761411 0.72925973
-0.60616452 -0.67404366 0.73916578
-0.60565579 -0.69034839 0.74883026
-0.59713024 -0.69773597 0.74883038
-0.58851451 -0.70501816 0.74883038
-0.57981002 -0.71219403 0.74883038
-0.57101804 -0.71926248 0.74883038
-0.56213987 -0.72622234 0.74883038
-0.55317688 -0.73307264 0.74883044
-0.5441305 -0.73981237 0.7488305
-0.53500193 -0.74644041 0.7488305
-0.52579266 -0.75295591 0.74883056
-0.51650411 -0.75935775 0.74883068
-0.50713754 -0.76564497 0.74883068
-0.49769446 -0.77181673 0.74883074
-0.48817638 -0.77787209 0.74883085
-0.47858453 -0.78380996 0.74883085
-0.4689205 -0.78962958 0.74883097
-0.45918566 -0.79533005 0.74883097
-0.44938156 -0.80091047 0.74883097
-0.43950966 -0.80637008 0.74883097
-0.42957145 -0.81170803 0.74883109
-0.41956845 -0.81692356 0.74883115
-0.40950206 -0.8220157 0.74883115
-0.39937392 -0.82698387 0.74883121
-0.38918552 -0.83182722 0.74883121
-0.3789385 -0.83654529 0.74883145
-0.36863416 -0.84113693 0.74883145
-0.35827422 -0.84560156 0.74883145
-0.34786025 -0.84993875 0.74883151
-0.33739376 -0.85414767 0.74883157
-0.32687634 -0.85822761 0.74883157
-0.31630966 -0.86217815 0.74883169
-0.30569491 -0.86599779 0.74883103
-0.29503462 -0.86968821 0.74883169
-0.28432953 -0.87324679 0.74883181
-0.27358148 -0.8766734 0.74883169
-0.26279229 -0.87996817 0.74883205
-0.25196335 -0.88312978 0.74883199
-0.24109641 -0.88615829 0.74883211
-0.23019305 -0.88905293 0.74883211
-0.21925497 -0.89181352 0.74883217
-0.20828383 -0.89443952 0.74883223
-0.19728123 -0.89693052 0.74883223
-0.18624887 -0.89928621 0.74883229
-0.17518839 -0.90150613 0.74883229
-0.16410154 -0.90359038 0.74883252
-0.15298986 -0.9055379 0.74883252
-0.14185517 -0.90734923 0.74883282
-0.13069899 -0.90902323 0.74883282
-0.11952309 -0.91055995 0.7488327
-0.10832928 -0.9119603 0.74883342
-0.097118922 -0.91322142 0.74883276
-0.085893959 -0.91434503 0.7488324
-0.074656159 -0.91533208 0.74883318
-0.063406952 -0.9161793 0.74883258
-0.052148283 -0.91688973 0.74883312
-0.040881697 -0.91746122 0.74883324
-0.023282524 -0.72177172 0.58883327
-0.013050744 -0.65367842 0.53311062
-0.0055450103 -0.72212589 0.58883327
0.0042293356 -0.91836196 0.7488333
0.015509755 -0.91824079 0.74883336
0.026787838 -0.91798109 0.74883342
0.03806188 -0.91758287 0.74883348
0.049330179 -0.91704613 0.74883348
0.060591046 -0.91637123 0.74883366
0.071842767 -0.91555786 0.74883378
0.083083645 -0.91460639 0.74883378
0.09431199 -0.91351688 0.74883384
0.1055261 -0.9122895 0.74883384
0.11672428 -0.91092443 0.74883384
0.12790486 -0.90942198 0.74883389
0.13906616 -0.90778238 0.74883401
0.15020646 -0.90600574 0.74883407
0.1613241 -0.90409237 0.74883413
0.17241742 -0.90204269 0.74883425
0.18348469 -0.89985675 0.74883425
0.1945243 -0.89753509 0.74883437
0.20553455 -0.89507806 0.74883443
0.21651378 -0.8924858 0.74883443
0.22746032 -0.88975894 0.74883443
0.23837259 -0.88689792 0.74883455
0.24924888 -0.88390303 0.74883461
0.26008755 -0.88077468 0.74883461
0.27088696 -0.87751341 0.74883461
0.28164554 -0.87411994 0.74883479
0.29236159 -0.87059438 0.74883479
0.30303347 -0.8669374 0.74883467
0.31366009 -0.86315078 0.74883568
0.32423866 -0.85923195 0.74883491
0.33476862 -0.85518444 0.74883497
0.3452481 -0.85100782 0.74883509
0.35567546 -0.84670281 0.74883509
0.36604914 -0.84226996 0.74883509
0.37636763 -0.83771014 0.74883521
0.38662931 -0.83302391 0.74883527
0.39683267 -0.82821196 0.74883538
0.40697613 -0.82327497 0.74883538
0.4170582 -0.81821382 0.74883544
0.42707735 -0.81302923 0.7488355
0.43703198 -0.80772191 0.7488355
0.44692072 -0.80229264 0.7488355
0.45674205 -0.79674244 0.74883556
0.46649444 -0.79107201 0.74883568
0.47617641 -0.78528208 0.74883568
0.48578653 -0.77937371 0.74883568
0.49532339 -0.7733478 0.74883574
0.50478554 -0.76720524 0.74883586
0.51417148 -0.76094687 0.74883592
0.52347988 -0.7545737 0.74883598
0.53270924 -0.74808657 0.74883598
0.54185826 -0.74148667 0.74883604
0.55092549 -0.73477483 0.7488361
0.55990958 -0.72795206 0.7488361
0.56880915 -0.72101951 0.7488361
0.57762301 -0.71397817 0.74883622
0.58634961 -0.70682907 0.74883622
0.59498775 -0.69957334 0.74883628
0.60353619 -0.69221205 0.74883634
0.60506916 -0.67699885 0.74036378
0.60506916 -0.66048759 0.73038065
0.60506916 -0.64441329 0.72077054
0.60506916 -0.6287542 0.71151596
0.60506916 -0.61348981 0.70260072
0.60506928 -0.59860116 0.69400966
0.60506922 -0.58406985 0.68572819
0.60506922 -0.56987923 0.6777432
0.60506916 -0.55601317 0.67004186
0.60506916 -0.54245663 0.6626125
0.60506916 -0.52919549 0.65544391
0.60506922 -0.51621634 0.6485256
0.60506922 -0.50350636 0.64184767
0.60506922 -0.49105367 0.63540077
0.60506922 -0.47884676 0.62917596
0.60506928 -0.46687496 0.62316519
0.60506898 -0.45512775 0.61736012
0.60506922 -0.44359604 0.61175424
0.60506928 -0.43227005 0.60633963
0.60506922 -0.421141 0.60110986
0.60506928 -0.41020077 0.59605879
0.60506916 -0.39944115 0.59118026
0.60506904 -0.38885462 0.58646864
0.60506916 -0.37843412 0.58191895
0.60506928 -0.36817247 0.57752568
0.60506916 -0.35806301 0.57328397
0.60506922 -0.3480995 0.56918943
0.60506922 -0.33827585 0.5652377
0.60506916 -0.32858619 0.56142449
0.60506922 -0.31902498 0.55774605
0.6050691 -0.30958679 0.5541985
0.60506916 -0.30026656 0.55077851
0.6050691 -0.29105923 0.54748249
0.6050691 -0.2819601 0.54430735
0.60506922 -0.2729646 0.54125005
0.60506916 -0.26406819 0.53830761
0.60506916 -0.25526667 0.5354774
0.6050691 -0.24655592 0.53275675
0.60506904 -0.23793192 0.53014308
0.60506904 -0.22939087 0.52763432
0.6050691 -0.22092901 0.52522808
0.6050691 -0.21254271 0.52292216
0.60506904 -0.20422846 0.52071458
0.60506904 -0.19598289 0.51860356
0.60506898 -0.18780267 0.5165872
0.60506904 -0.17968462 0.51466382
0.60506898 -0.17162555 0.51283175
0.60506898 -0.16362247 0.51108962
0.60506898 -0.15567237 0.50943583
0.60506898 -0.14777237 0.50786912
0.60506898 -0.13991965 0.50638819
0.60506892 -0.1321114 0.50499183
0.60506892 -0.12434492 0.50367898
0.60506892 -0.11661757 0.5024485
0.60506886 -0.10892671 0.5012995
0.60506898 -0.10126982 0.50023115
0.60506886 -0.093644314 0.49924231
0.6050688 -0.086047761 0.4983325
0.6050688 -0.07847771 0.49750099
0.6050688 -0.070931748 0.49674705
0.6050688 -0.063407481 0.49607015
0.6050688 -0.055902563 0.49546969
0.60506886 -0.04841467 0.49494538
0.54506904 -0.036881641 0.44546139
0.54506898 -0.030160684 0.44512498
0.54506898 -0.023448862 0.4448562
0.54506898 -0.016744129 0.44465473
0.54506898 -0.010044456 0.44452053
0.54506892 -0.0033478148 0.44445339
0.54506892 0.0033478148 0.44445339
0.54506886 0.010044455 0.44452047
0.54506886 0.016744126 0.44465464
0.54506886 0.023448857 0.44485605
0.5450688 0.030160675 0.44512483
0.5450688 0.036881626 0.44546124
0.60506856 0.048414648 0.49494514
0.60506862 0.055902548 0.49546954
0.6050685 0.063407451 0.49606988
0.60506839 0.070931695 0.49674672
0.60506845 0.078477658 0.49750063
0.60506845 0.086047702 0.49833217
0.60506839 0.093644239 0.49924195
0.60506839 0.10126972 0.50023067
0.60506827 0.10892659 0.50129896
0.60506833 0.11661745 0.50244802
0.60506833 0.1243448 0.50367844
0.60506827 0.13211125 0.50499123
0.60506833 0.13991949 0.50638765
0.60506815 0.14777218 0.50786841
0.60506821 0.15567218 0.50943518
0.60506815 0.16362223 0.51108891
0.60506821 0.17162532 0.51283109
0.60506815 0.17968434 0.51466304
0.60506803 0.18780237 0.51658636
0.60506809 0.19598258 0.51860273
0.60506797 0.2042281 0.52071369
0.60506803 0.21254234 0.52292126
0.60506797 0.22092861 0.52522707
0.60506779 0.2293904 0.52763325
0.60506791 0.23793146 0.53014207
0.60506785 0.2465554 0.53275561
0.60506779 0.25526613 0.53547621
0.60506773 0.26406756 0.53830636
0.60506767 0.27296391 0.54124874
0.60506767 0.28195944 0.54430604
0.60506755 0.29105851 0.54748106
0.60506755 0.30026579 0.55077708
0.60506761 0.30958602 0.55419713
0.60506749 0.31902412 0.5577445
0.60506749 0.3285853 0.56142294
0.60506737 0.33827481 0.56523597
0.60506731 0.34809843 0.56918764
0.60506737 0.35806191 0.57328224
0.60506731 0.36817127 0.57752377
0.60506719 0.37843287 0.58191699
0.60506719 0.38885343 0.58646685
0.60506707 0.39943978 0.59117824
0.60506707 0.41019928 0.59605664
0.60506701 0.42113948 0.60110766
0.60506701 0.43226841 0.60633731
0.6050669 0.44359434 0.61175185
0.60506684 0.45512614 0.61735797
0.60506666 0.46687293 0.62316251
0.60506678 0.47884482 0.62917346
0.60506666 0.49105161 0.63539809
0.60506654 0.50350416 0.64184481
0.60506648 0.51621401 0.64852273
0.60506648 0.52919316 0.65544099
0.60506636 0.54245412 0.6626094
0.60506636 0.55601054 0.67003876
0.60506624 0.56987637 0.6777398
0.60506612 0.58406687 0.68572468
0.60506606 0.59859794 0.69400597
0.60506612 0.61348677 0.70259714
0.605066 0.62875092 0.71151221
0.60506582 0.64440978 0.72076654
0.60506576 0.6604839 0.73037654
0.6050657 0.67699492 0.74035949
0.60353619 0.69221205 0.74883634
0.59498775 0.69957334 0.74883628
0.58634961 0.70682907 0.74883622
0.57762301 0.71397817 0.74883622
0.56880915 0.72101951 0.7488361
0.55990958 0.72795206 0.7488361
0.55092549 0.73477477 0.7488361
0.54185826 0.74148667 0.7488361
0.5327093 0.74808669 0.7488361
0.52347994 0.7545737 0.74883598
0.51417148 0.76094681 0.74883586
0.50478554 0.76720524 0.74883586
0.49532339 0.7733478 0.74883574
0.48578653 0.77937371 0.74883568
0.47617638 0.78528208 0.74883562
0.46649441 0.79107195 0.74883562
0.45674205 0.79674244 0.74883556
0.44508791 0.79900247 0.74576461
0.43231419 0.79900247 0.74075174
0.41970924 0.79900253 0.73591632
0.40726581 0.79900241 0.73125303
0.39497724 0.79900235 0.72675741
0.38283706 0.79900235 0.72242516
0.37083903 0.79900241 0.71825212
0.3589769 0.79900229 0.71423399
0.3472451 0.79900229 0.7103672
0.33563778 0.79900211 0.70664799
0.32414979 0.79900223 0.70307332
0.31277561 0.79900205 0.69963938
0.30151039 0.79900205 0.6963436
0.29034913 0.79900211 0.69318283
0.27928704 0.79900205 0.69015414
0.26831955 0.79900199 0.68725514
0.25744218 0.79900193 0.68448323
0.24665062 0.79900205 0.68183619
0.23594055 0.79900199 0.67931145
0.22530788 0.79900181 0.67690706
0.21474868 0.79900187 0.67462128
0.2042589 0.79900169 0.67245173
0.19383509 0.79900259 0.67039794
0.18347283 0.79900187 0.66845584
0.17316918 0.79900265 0.66662639
0.16291994 0.79900181 0.66490579
0.15272205 0.79900169 0.66329437
0.14257197 0.79900169 0.66179049
0.1324663 0.79900181 0.66039294
0.12240168 0.79900157 0.65910023
0.11237489 0.79900163 0.65791184
0.10238268 0.79900157 0.65682662
0.092421889 0.79900157 0.65584385
0.082489364 0.79900151 0.6549626
0.072581992 0.7990014 0.65418226
0.062696718 0.79900146 0.65350235
0.052830487 0.79900151 0.65292233
0.042980265 0.79900146 0.65244162
0.033143051 0.7990014 0.65205991
0.02331586 0.79900134 0.65177691
0.013495717 0.79900146 0.65159261
0.0036796434 0.79900128 0.65150642
-0.0055450108 0.72212589 0.58883333
-0.014414856 0.72200328 0.58883327
-0.023282524 0.72177172 0.58883327
-0.055297293 0.79900128 0.65305793
-0.065167993 0.79900116 0.65366286
-0.075058505 0.79900116 0.6543678
-0.084971853 0.79900104 0.65517312
-0.094911166 0.7990011 0.65607977
-0.10487949 0.79900098 0.65708798
-0.11488005 0.79900104 0.65819901
-0.12491598 0.79900104 0.65941334
-0.13499053 0.79900092 0.66073197
-0.14510699 0.79900092 0.66215611
-0.15526871 0.79900098 0.66368681
-0.16547903 0.79900092 0.66532505
-0.17574145 0.79900086 0.66707242
-0.18605945 0.79900074 0.66893005
-0.19643667 0.79900074 0.67089975
-0.20687681 0.79900086 0.67298299
-0.2173835 0.79900074 0.67518121
-0.22796071 0.79900074 0.67749649
-0.23861231 0.79900074 0.67993069
-0.24934234 0.79900068 0.6824857
-0.26015493 0.79900056 0.68516374
-0.27105442 0.79900062 0.68796724
-0.2820451 0.79900062 0.69089836
-0.29313153 0.79900056 0.69395977
-0.30431834 0.79900062 0.6971541
-0.31561029 0.7990005 0.70048404
-0.32701239 0.7990005 0.70395279
-0.33852974 0.7990005 0.70756334
-0.35016751 0.79900032 0.71131891
-0.36193138 0.79900038 0.71522319
-0.37382689 0.79900044 0.71927971
-0.38585982 0.7990002 0.72349209
