# .PCD v0.7 - Point Cloud Data file format
VERSION 0.7
FIELDS x y z
SIZE 4 4 4
TYPE F F F
COUNT 1 1 1
WIDTH 1357
HEIGHT 1
VIEWPOINT 0 0 0 1 0 0 0
POINTS 1357
DATA ascii
-0.62356496 0.39267328 -0.21085447
-0.6211527 0.38057962 -0.20844215
-0.61884141 0.36878562 -0.20613074
-0.6166262 0.3572751 -0.20391557
-0.61450332 0.3460333 -0.20179258
-0.6124683 0.33504584 -0.19975768
-0.6105178 0.3242996 -0.19780724
-0.60864854 0.31378222 -0.19593792
-0.606857 0.3034817 -0.19414638
-0.60514021 0.29338697 -0.19242959
-0.60349542 0.28348753 -0.19078477
-0.60191983 0.27377328 -0.18920918
-0.60041094 0.26423487 -0.18770035
-0.59896678 0.2548635 -0.18625607
-0.59758466 0.24565032 -0.18487394
-0.59626269 0.23658741 -0.18355198
-0.5949989 0.22766702 -0.18228824
-0.59379166 0.21888182 -0.18108094
-0.59263903 0.21022473 -0.17992832
-0.59153968 0.20168912 -0.17882882
-0.59049165 0.1932684 -0.17778084
-0.58949387 0.18495657 -0.17678303
-0.58854491 0.17674762 -0.17583404
-0.58764356 0.1686359 -0.17493264
-0.5867883 0.16061589 -0.17407756
-0.58597881 0.15268247 -0.1732679
-0.5852133 0.14483039 -0.17250246
-0.58449113 0.13705483 -0.17178033
-0.58381158 0.12935108 -0.17110071
-0.58317357 0.12171447 -0.17046265
-0.58257627 0.11414051 -0.1698654
-0.58201921 0.10662495 -0.16930829
-0.58150154 0.099163502 -0.16879059
-0.58102268 0.091752082 -0.16831173
-0.58058196 0.084386639 -0.1678711
-0.58017921 0.077063315 -0.16746829
-0.57981378 0.069778211 -0.16710277
-0.579485 0.062527537 -0.16677405
-0.57919282 0.055307619 -0.16648185
-0.57893693 0.048114814 -0.16622588
-0.57871664 0.040945474 -0.16600567
-0.57853222 0.033796091 -0.16582118
-0.57838309 0.026663115 -0.16567205
-0.57826924 0.019543068 -0.16555817
-0.57819045 0.012432481 -0.16547941
-0.5781467 0.0053279083 -0.16543567
-0.57813793 -0.0017740891 -0.16542692
-0.57816404 -0.0088769421 -0.16545311
-0.57822543 -0.015984092 -0.16551438
-0.57832158 -0.023098968 -0.16561064
-0.57845294 -0.030225031 -0.16574207
-0.57862002 -0.037365783 -0.16590895
-0.57882231 -0.044524696 -0.16611125
-0.57906026 -0.051705305 -0.16634926
-0.57933432 -0.058911216 -0.16662334
-0.57964456 -0.066146016 -0.16693366
-0.5799917 -0.073413432 -0.16728075
-0.58037585 -0.080717176 -0.16766489
-0.58079755 -0.088061064 -0.16808653
-0.5812571 -0.095448956 -0.16854616
-0.58175522 -0.10288485 -0.16904432
-0.58229262 -0.11037283 -0.16958167
-0.58286971 -0.11791704 -0.17015876
-0.58348715 -0.12552173 -0.17077628
-0.58541369 -0.13348043 -0.17180711
-0.59060585 -0.14231819 -0.17383087
-0.59589857 -0.15136194 -0.17592266
-0.66136605 -0.17666687 -0.19587605
-0.66085738 -0.1852572 -0.19638461
-0.66032326 -0.19388686 -0.1969188
-0.6597631 -0.20255788 -0.19747892
-0.65917665 -0.21127227 -0.19806528
-0.65856373 -0.22003226 -0.1986783
-0.65792358 -0.22883987 -0.19931823
-0.65725631 -0.23769745 -0.19998559
-0.65656108 -0.24660712 -0.20068069
-0.64410764 -0.25100023 -0.19780177
-0.62143403 -0.25100017 -0.19177127
-0.60009903 -0.25100017 -0.18612488
-0.57998139 -0.25100011 -0.18082795
-0.56097442 -0.25100008 -0.17584999
-0.54298311 -0.25100002 -0.17116386
-0.52592337 -0.25099999 -0.16674553
-0.50971979 -0.25099993 -0.16257347
-0.49430498 -0.2509999 -0.15862845
-0.47961855 -0.25099993 -0.1548932
-0.46560559 -0.25099984 -0.15135208
-0.4522171 -0.25099981 -0.14799108
-0.43940851 -0.25099981 -0.14479753
-0.42713913 -0.25099975 -0.1417598
-0.41537222 -0.25099969 -0.13886741
-0.40407428 -0.25099966 -0.13611084
-0.39321449 -0.25099963 -0.13348134
-0.38276485 -0.2509996 -0.1309709
-0.37269956 -0.25099963 -0.1285722
-0.36299479 -0.25099957 -0.12627846
-0.3536289 -0.25099957 -0.12408354
-0.34458169 -0.25099957 -0.12198172
-0.3358345 -0.25099948 -0.11996768
-0.32737029 -0.25099948 -0.11803663
-0.31917307 -0.25099951 -0.11618402
-0.31122792 -0.25099948 -0.11440563
-0.30352125 -0.25099948 -0.11269764
-0.29604015 -0.25099948 -0.11105639
-0.28877297 -0.25099963 -0.10947863
-0.28170791 -0.25099942 -0.10796096
-0.27483523 -0.25099942 -0.10650074
-0.26814497 -0.25099936 -0.10509511
-0.261628 -0.25099933 -0.10374156
-0.25527588 -0.25099933 -0.1024377
-0.24908054 -0.25099933 -0.1011813
-0.24303439 -0.2509993 -0.099970229
-0.23713043 -0.25099933 -0.098802559
-0.23136188 -0.25099927 -0.097676389
-0.22572257 -0.2509993 -0.096590042
-0.22020644 -0.25099924 -0.095541827
-0.21480796 -0.25099924 -0.094530247
-0.20952186 -0.25099927 -0.093553841
-0.20434301 -0.25099924 -0.092611209
-0.19926676 -0.25099927 -0.091701105
-0.19428852 -0.25099921 -0.09082225
-0.18940409 -0.25099918 -0.089973547
-0.1846094 -0.25099921 -0.089153901
-0.17990053 -0.25099915 -0.088362232
-0.17527391 -0.25099918 -0.087597631
-0.17072597 -0.25099915 -0.086859129
-0.16625339 -0.25099912 -0.086145863
-0.16185305 -0.25099915 -0.08545702
-0.15752184 -0.25099912 -0.084791787
-0.15325689 -0.25099909 -0.084149428
-0.1490555 -0.25099912 -0.083529249
-0.14491493 -0.25099909 -0.082930565
-0.14083269 -0.25099912 -0.082352743
-0.13680635 -0.25099915 -0.081795171
-0.13283353 -0.25099909 -0.081257261
-0.12891206 -0.25099909 -0.0807385
-0.12503974 -0.25099906 -0.080238335
-0.12121454 -0.25099903 -0.07975629
-0.11743449 -0.25099906 -0.079291925
-0.1136976 -0.25099903 -0.078844734
-0.1100021 -0.25099903 -0.078414343
-0.10634616 -0.25099903 -0.078000322
-0.10272808 -0.25099903 -0.07760229
-0.099146202 -0.250999 -0.077219896
-0.095598936 -0.25099903 -0.076852813
-0.092084698 -0.25099903 -0.076500677
-0.088601992 -0.25099903 -0.076163188
-0.085149363 -0.25099903 -0.075840063
-0.081725366 -0.25099894 -0.075530998
-0.078328677 -0.25099897 -0.075235769
-0.074957922 -0.25099891 -0.074954093
-0.071611822 -0.25099894 -0.07468576
-0.068289094 -0.25099897 -0.074430533
-0.064988486 -0.25099891 -0.07418818
-0.061708823 -0.25099891 -0.073958546
-0.058448911 -0.25099894 -0.073741414
-0.055207592 -0.25099891 -0.073536612
-0.051983748 -0.25099894 -0.073343992
-0.048776258 -0.25099891 -0.073163375
-0.045584042 -0.25099888 -0.072994627
-0.042406052 -0.25099891 -0.072837651
-0.039241217 -0.25099888 -0.072692268
-0.036088515 -0.25099885 -0.072558388
-0.032946937 -0.25099885 -0.07243593
-0.029815471 -0.25099885 -0.072324768
-0.026693135 -0.25099891 -0.072224848
-0.023578942 -0.25099888 -0.072136052
-0.020471927 -0.25099888 -0.072058335
-0.017371137 -0.25099888 -0.071991645
-0.014275609 -0.25099885 -0.071935907
-0.011184404 -0.2509988 -0.071891084
-0.0080965851 -0.2509988 -0.071857177
-0.0050112121 -0.2509988 -0.071834132
-0.0019273525 -0.25099882 -0.07182195
0.0011559258 -0.25099882 -0.071820594
0.0042395527 -0.25099882 -0.071830072
0.0073244604 -0.25099882 -0.071850404
0.01041158 -0.25099882 -0.071881592
0.013501848 -0.25099885 -0.071923673
0.016596202 -0.25099882 -0.071976654
0.019695587 -0.25099882 -0.072040603
0.022800948 -0.25099877 -0.072115533
0.025913252 -0.25099877 -0.072201543
0.029033456 -0.25099874 -0.072298683
0.032162547 -0.25099874 -0.07240703
0.035301507 -0.2509988 -0.072526664
0.038451318 -0.25099874 -0.072657652
0.041613024 -0.25099877 -0.072800152
0.044787619 -0.25099874 -0.072954215
0.047976173 -0.25099874 -0.073120005
0.051179729 -0.25099874 -0.073297627
0.053368874 -0.24624398 -0.072095141
0.057636209 -0.25099871 -0.073688954
0.060891356 -0.25099868 -0.073902979
0.06416598 -0.25099871 -0.074129485
0.067461222 -0.25099871 -0.074368626
0.070778288 -0.25099868 -0.074620605
0.07411842 -0.25099868 -0.074885637
0.077482879 -0.25099868 -0.075163953
0.080872945 -0.25099868 -0.075455762
0.084289975 -0.25099871 -0.075761341
0.087735295 -0.25099871 -0.076080918
0.091210328 -0.25099868 -0.076414771
0.094716549 -0.25099871 -0.07676322
0.098255374 -0.25099862 -0.077126518
0.10182843 -0.25099859 -0.077505037
0.10543731 -0.25099865 -0.077899136
0.1090836 -0.25099865 -0.078309111
0.11276903 -0.25099865 -0.078735366
0.11649537 -0.25099862 -0.079178303
0.12026445 -0.25099862 -0.079638347
0.12407817 -0.25099865 -0.080115922
0.12793848 -0.25099862 -0.08061149
0.13184743 -0.25099859 -0.081125543
0.13580716 -0.25099859 -0.081658594
0.13981989 -0.25099859 -0.082211189
0.14388789 -0.25099853 -0.082783878
0.14801362 -0.25099856 -0.083377294
0.15219954 -0.25099853 -0.083992019
0.1564483 -0.25099853 -0.084628761
0.16076267 -0.25099856 -0.085288204
0.16514541 -0.2509985 -0.08597105
0.16959964 -0.25099856 -0.08667814
0.17412838 -0.25099856 -0.087410234
0.17873497 -0.25099853 -0.088168219
0.18342291 -0.25099856 -0.088953011
0.18819575 -0.25099853 -0.089765556
0.19305733 -0.25099856 -0.090606891
0.19801165 -0.25099853 -0.091478072
0.20306292 -0.2509985 -0.092380226
0.20821564 -0.2509985 -0.093314596
0.21347442 -0.25099847 -0.094282418
0.21884429 -0.25099847 -0.095285073
0.22433041 -0.25099844 -0.096323952
0.22993833 -0.25099844 -0.097400606
0.23567393 -0.25099844 -0.098516643
0.24154338 -0.25099844 -0.099673755
0.24755327 -0.25099844 -0.10087378
0.25371057 -0.25099844 -0.10211864
0.26002264 -0.25099838 -0.10341039
0.26649755 -0.25099841 -0.10475128
0.27314353 -0.25099838 -0.10614361
0.27996966 -0.25099841 -0.10758992
0.2869854 -0.25099838 -0.10909286
0.29420096 -0.25099832 -0.1106553
0.30162746 -0.25099832 -0.11228036
0.30927646 -0.25099829 -0.11397131
0.31716064 -0.25099829 -0.11573172
0.32529339 -0.25099829 -0.11756536
0.33368933 -0.25099829 -0.11947638
0.34236407 -0.25099829 -0.12146918
0.35133439 -0.25099826 -0.12354852
0.36061865 -0.25099823 -0.12571961
0.37023658 -0.25099826 -0.12798803
0.38020942 -0.25099823 -0.13035983
0.39056042 -0.25099817 -0.13284162
0.401315 -0.25099823 -0.1354406
0.41250041 -0.2509982 -0.13816455
0.42414674 -0.25099817 -0.14102201
0.43628687 -0.25099814 -0.14402238
0.44895682 -0.25099817 -0.14717589
0.46219599 -0.25099811 -0.15049379
0.47604802 -0.25099811 -0.1539885
0.49056101 -0.25099811 -0.15767376
0.50578785 -0.25099805 -0.16156468
0.52178776 -0.25099802 -0.16567811
0.53862631 -0.25099799 -0.17003283
0.5563767 -0.25099796 -0.17464972
0.57512075 -0.2509979 -0.17955214
0.59495074 -0.2509979 -0.18476647
0.61597008 -0.25099787 -0.19032227
0.63829625 -0.2509979 -0.19625309
0.66206211 -0.25099781 -0.20259693
0.69105607 -0.25232545 -0.21050492
0.69158977 -0.24293485 -0.20974261
0.69210148 -0.23360445 -0.2090117
0.69259155 -0.22433159 -0.20831175
0.69306028 -0.2151136 -0.20764226
0.69350809 -0.20594797 -0.20700283
0.69393516 -0.19683211 -0.20639299
0.69434172 -0.18776354 -0.20581235
0.69472802 -0.17873988 -0.20526053
0.69509441 -0.16975875 -0.2047372
0.69544119 -0.16081783 -0.20424204
0.69576842 -0.15191482 -0.20377469
0.69607639 -0.14304744 -0.20333488
0.69636518 -0.13421349 -0.20292231
0.69663513 -0.1254108 -0.20253675
0.69688636 -0.11663721 -0.20217797
0.69711906 -0.10789058 -0.20184574
0.69733328 -0.09916883 -0.20153981
0.6975292 -0.09046986 -0.20126005
0.69770694 -0.081791639 -0.20100626
0.6978665 -0.073132105 -0.20077826
0.69800812 -0.064489268 -0.20057595
0.6981318 -0.055861119 -0.20039919
0.69823778 -0.047245674 -0.20024788
0.69832599 -0.038640961 -0.20012195
0.6983965 -0.03004501 -0.2000213
0.69844931 -0.021455865 -0.19994585
0.69848448 -0.012871576 -0.19989558
0.69850206 -0.0042902017 -0.19987044
0.69850206 0.0042902017 -0.19987044
0.69848448 0.012871576 -0.19989556
0.69844931 0.021455865 -0.19994585
0.69839644 0.030045008 -0.2000213
0.69832599 0.038640961 -0.20012195
0.69823772 0.047245674 -0.20024788
0.6981318 0.055861119 -0.20039919
0.69800812 0.064489268 -0.20057595
0.69786644 0.073132105 -0.20077825
0.69770682 0.081791624 -0.20100622
0.69752908 0.090469852 -0.20126003
0.69733316 0.099168815 -0.20153978
0.69711894 0.10789057 -0.20184571
0.6968863 0.11663719 -0.20217794
0.69663501 0.12541078 -0.20253672
0.69636512 0.13421348 -0.20292228
0.69607621 0.14304741 -0.20333482
0.69576824 0.15191478 -0.20377463
0.69544107 0.16081782 -0.20424201
0.69509429 0.16975872 -0.20473717
0.69472784 0.17873985 -0.20526049
0.69434154 0.1877635 -0.20581231
0.69393498 0.19683206 -0.20639294
0.69350785 0.20594789 -0.20700276
0.69306004 0.21511354 -0.2076422
0.69259137 0.22433153 -0.20831171
0.69210118 0.23360436 -0.20901163
0.69158953 0.24293476 -0.20974255
0.69105583 0.25232539 -0.21050486
0.69049966 0.26177892 -0.21129908
0.68992072 0.27129823 -0.21212576
0.68931878 0.28088629 -0.21298552
0.68869323 0.290546 -0.21387891
0.68804365 0.30028045 -0.21480656
0.68736964 0.31009278 -0.21576913
0.68667072 0.31998616 -0.2167673
0.68594635 0.32996401 -0.21780178
0.6851961 0.34002969 -0.21887334
0.68441921 0.35018671 -0.21998274
0.68361533 0.36043873 -0.22113083
0.68278372 0.37078953 -0.22231847
0.68192387 0.38124296 -0.22354655
0.68103492 0.391803 -0.22481599
0.68011642 0.40247387 -0.22612785
0.67916745 0.41325974 -0.22748308
0.67818743 0.42416513 -0.22888282
0.6771754 0.43519461 -0.23032817
0.67613053 0.44635287 -0.2318203
0.67505211 0.45764497 -0.2333605
0.67393905 0.46907589 -0.23494999
0.67279053 0.48065105 -0.23659021
0.67160565 0.49237603 -0.23828256
0.6703831 0.50425649 -0.24002849
0.66912204 0.51629847 -0.24182962
0.66782111 0.52850807 -0.2436875
0.66647917 0.54089189 -0.2456039
0.66509503 0.55345666 -0.24758062
0.66366738 0.56620955 -0.24961956
0.66219485 0.57915783 -0.25172266
0.66067576 0.59230912 -0.253892
0.65910888 0.60567158 -0.2561298
0.6574924 0.61925352 -0.25843829
0.65582484 0.63306397 -0.26081997
0.65410429 0.64711201 -0.26327732
0.65232873 0.66140717 -0.26581293
0.65049642 0.67595971 -0.2684297
0.64860535 0.6907804 -0.27113059
0.64665306 0.70588017 -0.27391866
0.64463753 0.72127104 -0.27679724
0.64255619 0.73696518 -0.27976975
0.64040649 0.75297564 -0.28283983
0.63818574 0.7693162 -0.2860114
0.63589108 0.78600121 -0.28928849
0.63351959 0.80304605 -0.29267544
0.63106787 0.82046676 -0.29617679
0.62853271 0.83828032 -0.29979736
0.62591046 0.85650492 -0.30354238
0.62319732 0.8751595 -0.30741715
0.62038922 0.89426434 -0.31142753
0.61748201 0.91384101 -0.31557965
0.61447084 0.93391192 -0.31987995
0.61135113 0.95450175 -0.32433549
0.60811758 0.97563601 -0.32895359
0.60476452 0.99734205 -0.33374211
0.60128635 1.0196494 -0.33870953
0.59767663 1.0425892 -0.34386486
0.59392858 1.0661948 -0.34921765
0.59003502 1.0905018 -0.35477829
0.58598816 1.1155485 -0.36055771
0.58177984 1.1413763 -0.36656788
0.5774011 1.168029 -0.3728216
0.57284206 1.1955534 -0.37933233
0.56809282 1.2240015 -0.38611513
0.56314188 1.2534279 -0.39318582
0.55797726 1.2838918 -0.40056163
0.55258608 1.3154581 -0.40826133
0.37859872 1.2821075 -0.3825177
0.37050161 1.3138975 -0.3906149
-0.44550642 1.3682612 -0.41173929
-0.45340818 1.3365339 -0.40383753
-0.46098128 1.3059058 -0.39626428
-0.46824464 1.2763135 -0.38900092
-0.47521561 1.2476985 -0.38202992
-0.48191023 1.2200062 -0.37533519
-0.48834363 1.1931866 -0.36890191
-0.4945294 1.1671921 -0.36271596
-0.50048071 1.1419798 -0.35676467
-0.50620943 1.1175088 -0.35103595
-0.51172674 1.0937412 -0.34551859
-0.51704317 1.0706416 -0.34020215
-0.5221684 1.048177 -0.33507684
-0.52711159 1.0263162 -0.33013359
-0.53188127 1.0050302 -0.32536376
-0.53648531 0.98429173 -0.32075933
-0.54093212 0.96407646 -0.31631321
-0.54522771 0.94435865 -0.31201783
-0.54937834 0.92511499 -0.30786628
-0.55339229 0.90632766 -0.30385351
-0.55727315 0.88797259 -0.2999723
-0.56102729 0.87003225 -0.29621762
-0.56466067 0.85248989 -0.2925846
-0.56817776 0.83532774 -0.28906807
-0.51500487 0.73750734 -0.25738689
-0.51797593 0.72268558 -0.25441563
-0.52085412 0.70816529 -0.25153741
-0.52364296 0.69393414 -0.24874866
-0.58416885 0.75468135 -0.273076
-0.58707654 0.73949003 -0.2701683
-0.58989555 0.72458231 -0.26734918
-0.59262919 0.70994735 -0.26461551
-0.59528053 0.69557458 -0.26196426
-0.59785223 0.68145353 -0.25939247
-0.6003471 0.66757476 -0.25689745
-0.60276794 0.65392929 -0.25447667
-0.60511702 0.64050812 -0.25212753
-0.60739678 0.62730289 -0.24984775
-0.60960948 0.61430562 -0.24763508
-0.61175716 0.60150856 -0.24548735
-0.61384195 0.5889045 -0.24340254
-0.61586577 0.57648641 -0.24137871
-0.61783051 0.56424755 -0.23941402
-0.61973852 0.55218196 -0.2375069
-0.6215893 0.54028153 -0.23565483
-0.62338716 0.52854264 -0.23385723
-0.62513232 0.51695853 -0.23211205
-0.62682641 0.50552374 -0.23041786
-0.62847096 0.49423316 -0.22877333
-0.63006723 0.48308155 -0.22717702
-0.63161647 0.47206414 -0.22562771
-0.63312006 0.46117616 -0.22412413
-0.63457906 0.45041302 -0.2226651
-0.63287449 0.43761295 -0.22016408
-0.63006854 0.4243283 -0.21735817
-0.62738228 0.41140848 -0.21467179
-0.62480944 0.39883304 -0.21209899
-0.62234491 0.3865833 -0.20963447
-0.61998373 0.37464163 -0.20727322
-0.61772114 0.36299145 -0.20501053
-0.6155526 0.35161719 -0.20284198
-0.61347413 0.34050432 -0.20076352
-0.61148167 0.32963911 -0.19877128
-0.60957247 0.31900904 -0.19686194
-0.60774243 0.30860156 -0.1950319
-0.60598868 0.29840538 -0.19327813
-0.60430831 0.28840965 -0.1915977
-0.60269845 0.27860409 -0.18998785
-0.60115659 0.26897904 -0.18844599
-0.5996803 0.25952527 -0.18696973
-0.59826738 0.25023404 -0.18555677
-0.59691572 0.24109711 -0.18420506
-0.59562314 0.23210646 -0.18291247
-0.59438801 0.22325467 -0.18167724
-0.59320831 0.21453442 -0.1804975
-0.59208238 0.20593889 -0.1793716
-0.59100872 0.19746152 -0.17829803
-0.58998621 0.18909609 -0.17727537
-0.58901292 0.18083644 -0.17630213
-0.58808792 0.17267683 -0.1753771
-0.58720976 0.16461167 -0.17449901
-0.58637768 0.15663567 -0.17366683
-0.58559024 0.14874355 -0.1728794
-0.58484668 0.1409304 -0.17213579
-0.58414584 0.13319133 -0.17143501
-0.58348721 0.12552175 -0.17077631
-0.58286971 0.11791704 -0.17015876
-0.58229262 0.11037283 -0.16958167
-0.58175522 0.10288485 -0.16904432
-0.5812571 0.095448956 -0.16854616
-0.58079755 0.088061064 -0.16808653
-0.58037585 0.080717176 -0.16766489
-0.5799917 0.073413432 -0.16728075
-0.57964456 0.066146016 -0.16693366
-0.57933432 0.058911216 -0.16662334
-0.57906026 0.051705305 -0.16634926
-0.57882231 0.044524696 -0.16611125
-0.57862002 0.037365783 -0.16590895
-0.57845294 0.030225031 -0.16574207
-0.57832158 0.023098968 -0.16561064
-0.57822543 0.015984092 -0.16551438
-0.57816404 0.0088769421 -0.16545311
-0.57813793 0.0017740891 -0.16542692
-0.5781467 -0.0053279083 -0.16543567
-0.57819045 -0.012432481 -0.16547941
-0.57826924 -0.019543068 -0.16555817
-0.57838309 -0.026663115 -0.16567205
-0.57853222 -0.033796091 -0.16582118
-0.57871664 -0.040945474 -0.16600567
-0.57893693 -0.048114814 -0.16622588
-0.57919282 -0.055307619 -0.16648185
-0.579485 -0.062527537 -0.16677405
-0.57981378 -0.069778211 -0.16710277
-0.58017921 -0.077063315 -0.16746829
-0.58058196 -0.084386639 -0.16787109
-0.58102268 -0.091752082 -0.16831173
-0.58150154 -0.099163502 -0.16879059
-0.58201921 -0.10662495 -0.16930829
-0.58257622 -0.1141405 -0.16986538
-0.58317357 -0.12171447 -0.17046265
-0.58381134 -0.12935103 -0.17110065
-0.58799964 -0.13787754 -0.17281148
-0.59324116 -0.14681716 -0.17486882
-0.59858525 -0.15596721 -0.1769955
-0.66111475 -0.18096054 -0.19612736
-0.66059333 -0.18957029 -0.1966487
-0.66004616 -0.19822037 -0.1971958
-0.65947288 -0.20691282 -0.197769
-0.65887332 -0.2156498 -0.19836868
-0.65824682 -0.22443333 -0.19899511
-0.65759319 -0.23326568 -0.19964874
-0.65691197 -0.24214904 -0.20032991
-0.65597951 -0.25100029 -0.20097069
-0.63258666 -0.2510002 -0.19473386
-0.61059904 -0.2510002 -0.18890019
-0.58988732 -0.25100014 -0.1834327
-0.57033795 -0.25100005 -0.17829894
-0.55185032 -0.25100002 -0.1734702
-0.5343352 -0.25100002 -0.16892093
-0.51771271 -0.25099996 -0.16462837
-0.50191188 -0.25099996 -0.16057222
-0.48686868 -0.25099993 -0.1567342
-0.4725256 -0.25099984 -0.1530979
-0.45883113 -0.25099987 -0.14964862
-0.44573811 -0.25099984 -0.14637291
-0.43320414 -0.25099981 -0.14325871
-0.42119056 -0.25099972 -0.14029495
-0.40966237 -0.25099972 -0.13747169
-0.39858732 -0.25099966 -0.13477974
-0.38793609 -0.25099963 -0.13221075
-0.37768185 -0.2509996 -0.12975709
-0.36779982 -0.2509996 -0.12741172
-0.35826719 -0.25099954 -0.12516817
-0.34906319 -0.25099954 -0.12302052
-0.34016833 -0.25099951 -0.12096326
-0.33156481 -0.25099948 -0.11899134
-0.32323614 -0.25099951 -0.11710008
-0.31516683 -0.25099951 -0.11528511
-0.30734268 -0.25099951 -0.11354243
-0.29975036 -0.25099945 -0.11186825
-0.29237768 -0.25099948 -0.11025915
-0.28521329 -0.25099975 -0.10871196
-0.27824554 -0.25099942 -0.1072233
-0.27146533 -0.25099942 -0.10579073
-0.2648629 -0.25099936 -0.10441148
-0.25842944 -0.25099933 -0.10308307
-0.25215673 -0.25099933 -0.10180323
-0.24603698 -0.25099933 -0.10056977
-0.2400628 -0.2509993 -0.099380635
-0.23422745 -0.2509993 -0.098233975
-0.22852433 -0.2509993 -0.097127944
-0.22294737 -0.2509993 -0.096060872
-0.21749082 -0.2509993 -0.095031187
-0.21214916 -0.25099924 -0.094037361
-0.20691735 -0.25099927 -0.093078025
-0.20179042 -0.25099927 -0.092151828
-0.19676377 -0.25099924 -0.091257505
-0.19183299 -0.25099924 -0.090393886
-0.18699399 -0.25099924 -0.089559861
-0.18224265 -0.25099915 -0.088754319
-0.17757541 -0.25099915 -0.087976322
-0.17298855 -0.25099912 -0.087224878
-0.16847876 -0.25099915 -0.086499125
-0.16404273 -0.25099915 -0.085798189
-0.15967734 -0.25099915 -0.085121252
-0.15537964 -0.25099912 -0.084467553
-0.15114683 -0.25099912 -0.083836384
-0.14697619 -0.25099912 -0.083227038
-0.14286511 -0.25099912 -0.08263886
-0.13881113 -0.25099909 -0.082071245
-0.13481185 -0.25099909 -0.081523575
-0.13086502 -0.25099912 -0.080995329
-0.1269684 -0.25099906 -0.080485925
-0.12311993 -0.25099906 -0.079994902
-0.11931755 -0.25099903 -0.079521753
-0.11555933 -0.25099903 -0.079066031
-0.11184337 -0.25099903 -0.078627296
-0.10816788 -0.250999 -0.078205138
-0.1045311 -0.250999 -0.077799171
-0.10093135 -0.250999 -0.077409022
-0.097366981 -0.250999 -0.077034317
-0.093836442 -0.25099903 -0.076674759
-0.090338156 -0.250999 -0.076329984
-0.086870678 -0.250999 -0.075999722
-0.08343254 -0.25099894 -0.075683653
-0.080022402 -0.25099897 -0.075381562
-0.076638855 -0.25099897 -0.07509315
-0.073280603 -0.25099897 -0.074818179
-0.069946341 -0.25099894 -0.074556425
-0.066634841 -0.25099894 -0.074307665
-0.063344873 -0.25099897 -0.074071713
-0.060075231 -0.25099894 -0.073848352
-0.056824766 -0.25099894 -0.073637411
-0.053592321 -0.25099891 -0.073438711
-0.050376803 -0.25099894 -0.073252127
-0.047177095 -0.25099894 -0.073077478
-0.043992121 -0.25099888 -0.072914615
-0.040820844 -0.25099891 -0.072763458
-0.037662212 -0.25099891 -0.072623856
-0.034515198 -0.25099885 -0.072495691
-0.031378806 -0.25099888 -0.072378904
-0.028252028 -0.25099885 -0.072273366
-0.025133887 -0.25099885 -0.072179019
-0.022023411 -0.25099891 -0.072095789
-0.018919628 -0.25099888 -0.072023585
-0.015821589 -0.25099885 -0.071962379
-0.012728347 -0.25099888 -0.071912132
-0.0096389512 -0.25099882 -0.071872763
-0.0065524722 -0.2509988 -0.071844287
-0.0034679736 -0.25099882 -0.071826689
-0.00038452094 -0.25099882 -0.071819916
0.0026988154 -0.25099882 -0.071823977
0.005782967 -0.25099882 -0.071838893
0.0088688647 -0.25099882 -0.07186465
0.011957441 -0.25099882 -0.071901277
0.015049636 -0.25099882 -0.071948811
0.018146388 -0.2509988 -0.072007269
0.021248646 -0.2509988 -0.072076716
0.02435736 -0.25099877 -0.072157182
0.027473498 -0.25099874 -0.072248757
0.030598028 -0.25099877 -0.072351493
0.03373193 -0.25099877 -0.072465472
0.036876194 -0.25099877 -0.072590783
0.040031832 -0.25099877 -0.072727516
0.043199856 -0.25099877 -0.07287579
0.046381302 -0.25099874 -0.073035695
0.049577232 -0.25099874 -0.073207393
0.052788708 -0.25099874 -0.073390998
0.056016818 -0.25099874 -0.07358665
0.059262663 -0.25099868 -0.073794499
0.062527418 -0.25099871 -0.074014753
0.065812193 -0.25099868 -0.074247546
0.069118224 -0.25099871 -0.074493103
0.072446667 -0.25099868 -0.074751578
0.075798817 -0.25099871 -0.075023234
0.079175934 -0.25099871 -0.075308271
0.082579315 -0.25099868 -0.075606935
0.086010315 -0.25099868 -0.075919472
0.089470334 -0.25099868 -0.076246165
0.092960782 -0.25099868 -0.076587282
0.096483126 -0.25099865 -0.076943122
0.10003889 -0.25099862 -0.077314004
0.10362967 -0.25099862 -0.077700272
0.10725705 -0.25099862 -0.078102261
0.11092272 -0.25099865 -0.078520343
0.1146284 -0.25099862 -0.078954898
0.1183759 -0.25099865 -0.079406343
0.12216707 -0.25099865 -0.079875097
0.12600385 -0.25099862 -0.080361612
0.12988825 -0.25099865 -0.080866374
0.13382234 -0.25099862 -0.081389867
0.13780829 -0.25099859 -0.081932627
0.14184839 -0.25099856 -0.082495205
0.14594497 -0.25099856 -0.083078183
0.15010048 -0.25099853 -0.083682172
0.15431754 -0.25099856 -0.084307849
0.15859877 -0.25099856 -0.084955856
0.16294697 -0.25099853 -0.085626908
0.1673651 -0.25099856 -0.086321793
0.17185622 -0.25099856 -0.087041289
0.17642348 -0.2509985 -0.087786213
0.18107034 -0.25099853 -0.088557497
0.18580027 -0.2509985 -0.08935605
0.19061707 -0.25099856 -0.090182886
0.1955245 -0.2509985 -0.091038994
0.20052679 -0.25099847 -0.091925524
0.20562825 -0.25099844 -0.092843652
0.21083345 -0.25099844 -0.093794599
0.2161472 -0.25099847 -0.094779685
0.22157457 -0.25099847 -0.095800288
0.22712095 -0.25099847 -0.096857883
0.23279199 -0.25099844 -0.097954027
0.23859374 -0.25099841 -0.099090382
0.24453264 -0.25099847 -0.10026874
0.25061539 -0.25099844 -0.10149095
0.25684917 -0.25099838 -0.102759
0.26324171 -0.25099841 -0.10407507
0.26980114 -0.25099841 -0.10544139
0.27653608 -0.25099838 -0.1068604
0.28345588 -0.25099841 -0.10833472
0.29057023 -0.25099832 -0.10986704
0.29789004 -0.25099835 -0.11146045
0.3054263 -0.25099832 -0.11311804
0.31319135 -0.25099832 -0.11484329
0.32119817 -0.25099829 -0.11663984
0.32946074 -0.25099829 -0.11851167
0.33799419 -0.25099832 -0.12046304
0.34681457 -0.25099826 -0.1224985
0.35593963 -0.25099823 -0.12462308
0.36538827 -0.25099823 -0.12684214
0.37518102 -0.25099823 -0.12916151
0.38534006 -0.2509982 -0.13158749
0.39588976 -0.25099823 -0.13412699
0.40685627 -0.2509982 -0.13678746
0.41826847 -0.2509982 -0.13957714
0.43015763 -0.2509982 -0.14250489
0.44255805 -0.25099814 -0.1455805
0.45550767 -0.25099811 -0.1488148
0.46904784 -0.25099814 -0.15221956
0.48322427 -0.25099811 -0.15580782
0.49808738 -0.25099805 -0.15959395
0.51369333 -0.25099802 -0.16359401
0.53010422 -0.25099799 -0.16782573
0.54738933 -0.25099796 -0.17230885
0.56562626 -0.25099799 -0.17706557
0.58490133 -0.2509979 -0.18212053
0.60531271 -0.2509979 -0.1875018
0.62697029 -0.25099784 -0.19324076
0.6499992 -0.25099781 -0.1993732
0.67454159 -0.25099784 -0.20593975
0.69132584 -0.24761884 -0.21011949
0.69184852 -0.2382587 -0.20937297
0.69234937 -0.22895746 -0.20865764
0.69282877 -0.21971239 -0.20797299
0.69328707 -0.21052092 -0.2073186
0.69372439 -0.20138049 -0.20669401
0.69414109 -0.19228859 -0.20609882
0.69453752 -0.18324281 -0.20553266
0.69491392 -0.17424074 -0.20499516
0.69527042 -0.16528 -0.20448594
0.69560742 -0.15635833 -0.20400473
0.69592488 -0.14747341 -0.20355117
0.69622332 -0.13862306 -0.20312506
0.69650269 -0.12980503 -0.20272605
0.69676322 -0.12101715 -0.20235391
0.69700509 -0.11225732 -0.20200841
0.69722849 -0.10352339 -0.20168936
0.69743353 -0.094813295 -0.20139655
0.69762039 -0.086124964 -0.20112982
0.69778901 -0.077456348 -0.20088895
0.69793969 -0.068805434 -0.20067385
0.69807237 -0.060170196 -0.20048434
0.69818711 -0.051548645 -0.20032032
0.69828421 -0.042938817 -0.20018172
0.69836348 -0.034338728 -0.20006843
0.69842505 -0.025746424 -0.19998038
0.6984691 -0.017159954 -0.19991754
0.69849551 -0.0085773682 -0.19987987
0.69850427 3.2779551e-06 -0.19986731
0.7212581 -3.3847348e-06 -0.16737117
0.72125047 0.0088567939 -0.16738203
0.72122771 0.017719086 -0.16741462
0.72118956 0.026585605 -0.16746895
0.72113627 0.035458475 -0.16754508
0.72106773 0.044339821 -0.16764306
0.72098374 0.053231768 -0.16776291
0.72088444 0.062136479 -0.16790475
0.7207697 0.071056105 -0.16806865
0.72063935 0.079992794 -0.16825469
0.72049344 0.088948771 -0.16846304
0.72033197 0.097926244 -0.16869383
0.72015452 0.10692741 -0.16894715
0.71996117 0.11595454 -0.16922319
0.71975189 0.12500994 -0.16952217
0.71952635 0.13409588 -0.16984421
0.71928453 0.14321472 -0.17018957
0.71902627 0.15236883 -0.17055847
0.71875119 0.1615606 -0.17095111
0.71845949 0.17079253 -0.17136782
0.71815073 0.18006706 -0.17180882
0.7178247 0.18938676 -0.17227441
0.71748114 0.19875418 -0.17276491
0.71712011 0.20817201 -0.17328067
0.71674109 0.21764289 -0.17382202
0.71634388 0.22716957 -0.1743893
0.71592814 0.23675486 -0.17498294
0.7154938 0.24640168 -0.17560335
0.71504039 0.2561129 -0.17625093
0.71456748 0.26589155 -0.17692615
0.71407503 0.27574077 -0.1776295
0.71356249 0.28566366 -0.17836148
0.7130295 0.29566354 -0.17912261
0.71247578 0.30574372 -0.17991346
0.71190089 0.31590769 -0.18073462
0.71130413 0.32615888 -0.18158664
0.71068555 0.33650109 -0.18247023
0.71004432 0.34693795 -0.18338603
0.70937997 0.3574734 -0.18433471
0.70869219 0.36811149 -0.18531707
0.70798016 0.37885624 -0.18633382
0.70724356 0.38971204 -0.18738583
0.7064817 0.40068325 -0.1884739
0.70569402 0.41177449 -0.18959893
0.7048797 0.42299038 -0.19076182
0.7040382 0.43433601 -0.19196357
0.70316881 0.44581634 -0.19320519
0.70227069 0.45743668 -0.19448775
0.70134336 0.46920267 -0.19581242
0.70038551 0.48111975 -0.19718024
0.69939649 0.49319401 -0.19859253
0.69837564 0.50543171 -0.20005059
0.69732177 0.51783907 -0.20155571
0.69623399 0.53042299 -0.20310937
0.69511104 0.54319012 -0.20471294
0.69395208 0.55614817 -0.20636812
0.69275588 0.56930447 -0.20807645
0.69152129 0.58266705 -0.2098397
0.69024688 0.59624416 -0.21165963
0.68893158 0.6100446 -0.21353818
0.68757379 0.62407738 -0.21547735
0.68617213 0.63835204 -0.2174792
0.68472487 0.65287846 -0.21954592
0.6832307 0.66766739 -0.22167993
0.68168765 0.6827296 -0.22388361
0.68009394 0.69807667 -0.22615954
0.67844784 0.71372092 -0.22851053
0.67674714 0.72967494 -0.23093937
0.67498976 0.74595237 -0.23344913
0.67317367 0.76256746 -0.2360431
0.67129594 0.77953476 -0.23872449
0.66935474 0.79687071 -0.24149711
0.66734684 0.81459147 -0.24436462
0.66526961 0.83271492 -0.24733108
0.66312009 0.85125977 -0.25040081
0.66089523 0.87024605 -0.25357839
0.65859145 0.88969445 -0.2568686
0.65620524 0.90962744 -0.26027653
0.65373272 0.93006867 -0.26380771
0.6511699 0.95104331 -0.26746789
0.64851218 0.97257793 -0.27126324
0.64575535 0.99470174 -0.27520052
0.64289427 1.017445 -0.27928674
0.63992351 1.04084 -0.28352937
0.63683766 1.064922 -0.2879366
0.63363039 1.089728 -0.29251704
0.63029516 1.1152978 -0.29727992
0.62682545 1.1416752 -0.30223548
0.62321323 1.1689055 -0.30739421
0.61945063 1.1970388 -0.31276786
0.61552882 1.2261285 -0.31836882
0.61143839 1.2562321 -0.32421061
0.60716903 1.2874124 -0.33030778
0.60270983 1.3197371 -0.33667621
-0.5221898 1.346135 -0.3350566
-0.5285154 1.3143275 -0.32873082
-0.53457731 1.2836214 -0.32266897
-0.54039031 1.253953 -0.31685591
-0.54596853 1.2252632 -0.31127769
-0.55132478 1.1974974 -0.30592132
-0.55647123 1.1706053 -0.30077493
-0.56141883 1.1445392 -0.29582727
-0.5661779 1.1192559 -0.29106805
-0.57075828 1.0947143 -0.28648764
-0.57516855 1.070876 -0.28207693
-0.57941777 1.0477066 -0.27782786
-0.5835132 1.0251719 -0.27373233
-0.58746165 1.0032398 -0.26978281
-0.59127253 0.98188555 -0.26597357
-0.59494954 0.96107709 -0.26229694
-0.5984996 0.94079036 -0.25874734
-0.6019271 0.92099911 -0.25531852
-0.60523915 0.90168345 -0.25200599
-0.60844117 0.88282263 -0.24880488
-0.61153573 0.86439312 -0.24570958
-0.61452931 0.84637892 -0.24271651
-0.61742467 0.82876003 -0.23982091
-0.62022638 0.81152022 -0.23701908
-0.6229381 0.79464328 -0.23430721
-0.62556344 0.77811402 -0.23168187
-0.62810576 0.76191813 -0.22913969
-0.63056779 0.7460413 -0.22667737
-0.63295299 0.73047113 -0.2242921
-0.63438362 0.71420372 -0.22167332
-0.6297943 0.69173348 -0.21708398
-0.62543923 0.67022383 -0.21272883
-0.62130207 0.64960659 -0.20859167
-0.6173687 0.62982053 -0.20465811
-0.61362499 0.61080843 -0.2009145
-0.61005962 0.59251982 -0.197349
-0.60666084 0.57490683 -0.19395025
-0.60341889 0.55792683 -0.19070823
-0.60032409 0.54153967 -0.18761347
-0.59736824 0.52570927 -0.1846575
-0.59454298 0.51040137 -0.18183227
-0.5918414 0.49558523 -0.17913057
-0.58925647 0.48123184 -0.17654562
-0.58678198 0.46731436 -0.17407115
-0.58441222 0.4538081 -0.17170142
-0.58214182 0.44068998 -0.16943105
-0.57996583 0.42793855 -0.16725507
-0.57787985 0.41553387 -0.16516893
-0.54281014 0.38028905 -0.15379849
-0.54093754 0.36915493 -0.15197156
-0.54032481 0.35908881 -0.15054877
-0.54018348 0.34950566 -0.14930184
-0.54034698 0.340269 -0.14818051
-0.5407272 0.331303 -0.14715759
-0.54133832 0.32259929 -0.14623438
-0.54214031 0.31411773 -0.14539765
-0.54294312 0.30573699 -0.14459477
-0.54372013 0.2974377 -0.14381777
-0.5444718 0.28921679 -0.14306605
-0.5451988 0.28107139 -0.14233907
-0.54590154 0.27299863 -0.14163628
-0.54658055 0.26499578 -0.14095722
-0.54723644 0.25706026 -0.14030139
-0.54786944 0.24918938 -0.13966833
-0.54848015 0.24138066 -0.13905759
-0.54906899 0.2336317 -0.13846879
-0.54963619 0.22594005 -0.13790146
-0.5501824 0.21830349 -0.1373553
-0.55070776 0.2107197 -0.13682988
-0.55121279 0.2031865 -0.1363249
-0.55169755 0.1957017 -0.13583998
-0.55216277 0.18826331 -0.13537486
-0.55260837 0.18086919 -0.1349292
-0.55303484 0.17351736 -0.13450272
-0.55344236 0.16620587 -0.13409513
-0.55383128 0.15893282 -0.13370623
-0.55420178 0.15169628 -0.13333572
-0.5545541 0.14449446 -0.1329834
-0.55488843 0.1373255 -0.13264902
-0.69224727 0.16232212 -0.16499625
-0.69262022 0.15345904 -0.16462338
-0.69297153 0.14463045 -0.1642722
-0.6933012 0.13583414 -0.16394243
-0.69360965 0.12706813 -0.16363391
-0.69389707 0.11833032 -0.16334645
-0.69416368 0.10961872 -0.1630799
-0.69440937 0.10093127 -0.16283406
-0.69463456 0.092266046 -0.16260882
-0.6948393 0.083621062 -0.16240402
-0.69502383 0.074994393 -0.16221958
-0.69518805 0.066384107 -0.16205533
-0.69533205 0.057788283 -0.1619112
-0.69545615 0.049205054 -0.16178715
-0.69556022 0.040632512 -0.16168304
-0.69564444 0.032068793 -0.16159885
-0.69570869 0.02351203 -0.1615345
-0.69575316 0.014960363 -0.16148996
-0.69577783 0.006411938 -0.16146523
-0.69578284 -0.0021350973 -0.1614603
-0.695768 -0.010682595 -0.16147511
-0.69573337 -0.019232405 -0.16150972
-0.69567889 -0.027786383 -0.16156413
-0.69560462 -0.036346383 -0.16163838
-0.69551039 -0.044914264 -0.16173249
-0.69539636 -0.053491913 -0.16184656
-0.69526219 -0.062081181 -0.16198061
-0.69510812 -0.070683993 -0.16213478
-0.69493377 -0.079302222 -0.1623091
-0.69473904 -0.087937772 -0.16250366
-0.69452405 -0.096592613 -0.16271865
-0.69428855 -0.10526868 -0.16295417
-0.69403237 -0.11396793 -0.1632103
-0.69375545 -0.12269238 -0.1634873
-0.69345737 -0.13144398 -0.1637852
-0.6931383 -0.14022484 -0.16410431
-0.69279951 -0.14903738 -0.16444516
-0.69243574 -0.15788257 -0.16480675
-0.69205201 -0.16676366 -0.16519055
-0.6916461 -0.17568241 -0.16559631
-0.69121802 -0.18464106 -0.16602434
-0.69076747 -0.19364184 -0.16647492
-0.69029397 -0.202687 -0.16694829
-0.68979752 -0.21177891 -0.16744478
-0.68927759 -0.22091991 -0.16796468
-0.68873388 -0.23011239 -0.16850832
-0.68816608 -0.23935884 -0.16907606
-0.68757391 -0.24866186 -0.16966827
-0.66825718 -0.25100023 -0.16564998
-0.64410752 -0.25100017 -0.16041589
-0.62143397 -0.25100014 -0.15552521
-0.60009885 -0.25100008 -0.15094599
-0.57998127 -0.25100005 -0.14665024
-0.56097424 -0.25100002 -0.14261313
-0.542983 -0.25099996 -0.13881272
-0.52592325 -0.25099993 -0.1352295
-0.50971967 -0.2509999 -0.13184598
-0.49430484 -0.25099984 -0.12864658
-0.47961828 -0.25099978 -0.12561728
-0.46560544 -0.25099978 -0.12274549
-0.45221698 -0.25099975 -0.12001976
-0.4394083 -0.25099969 -0.11742978
-0.42713898 -0.25099966 -0.11496621
-0.41537216 -0.25099966 -0.11262053
-0.40407419 -0.2509996 -0.11038497
-0.39321449 -0.25099963 -0.10825247
-0.38276479 -0.25099957 -0.1062165
-0.3726995 -0.2509996 -0.10427118
-0.36299479 -0.25099957 -0.10241099
-0.35362887 -0.25099954 -0.10063092
-0.3445816 -0.25099951 -0.098926336
-0.33583453 -0.25099954 -0.097293004
-0.32737029 -0.25099948 -0.095726915
-0.31917298 -0.25099945 -0.094224438
-0.31122786 -0.25099945 -0.092782192
-0.30352122 -0.25099948 -0.091397025
-0.29604143 -0.25100055 -0.090066388
-0.28877264 -0.25099936 -0.088786334
-0.28170782 -0.25099936 -0.087555595
-0.27483517 -0.25099936 -0.08637137
-0.26814491 -0.25099933 -0.085231423
-0.261628 -0.25099933 -0.084133714
-0.25527585 -0.25099927 -0.083076283
-0.24908051 -0.2509993 -0.082057349
-0.24303441 -0.2509993 -0.081075191
-0.2371304 -0.25099927 -0.0801282
-0.23136187 -0.25099924 -0.079214893
-0.22572254 -0.25099924 -0.07833387
-0.22020644 -0.25099924 -0.077483788
-0.21480797 -0.25099924 -0.076663405
-0.20952183 -0.25099924 -0.075871535
-0.20434299 -0.25099921 -0.075107068
-0.19926667 -0.25099915 -0.074368946
-0.19428849 -0.25099918 -0.073656231
-0.18940404 -0.25099912 -0.072967924
-0.18460935 -0.25099912 -0.072303198
-0.17990054 -0.25099915 -0.071661182
-0.17527388 -0.25099912 -0.071041085
-0.17072594 -0.25099912 -0.07044217
-0.16625339 -0.25099912 -0.069863722
-0.16185305 -0.25099915 -0.069305077
-0.15752184 -0.25099915 -0.068765581
-0.15325692 -0.25099915 -0.068244636
-0.1490555 -0.25099912 -0.06774167
-0.14491493 -0.25099909 -0.06725613
-0.14083263 -0.25099903 -0.066787496
-0.13680629 -0.25099903 -0.066335313
-0.1328335 -0.250999 -0.065899082
-0.12891202 -0.250999 -0.065478362
-0.12503973 -0.25099903 -0.065072753
-0.12121453 -0.250999 -0.064681821
-0.11743448 -0.25099903 -0.064305216
-0.11369761 -0.25099906 -0.063942559
-0.11000209 -0.25099903 -0.063593499
-0.10634615 -0.250999 -0.063257731
-0.10272808 -0.25099903 -0.062934943
-0.09914621 -0.250999 -0.062624827
-0.095598914 -0.25099897 -0.062327102
-0.092084676 -0.25099897 -0.062041525
-0.088601962 -0.25099894 -0.06176782
-0.085149333 -0.25099894 -0.061505768
-0.081725366 -0.25099894 -0.061255135
-0.078328677 -0.25099894 -0.061015707
-0.074957922 -0.25099891 -0.060787268
-0.071611829 -0.25099897 -0.060569659
-0.068289094 -0.25099894 -0.060362667
-0.064988501 -0.25099897 -0.060166132
-0.061708823 -0.25099891 -0.059979882
-0.0584489 -0.25099888 -0.059803784
-0.055207588 -0.25099888 -0.059637696
-0.05198374 -0.25099888 -0.059481479
-0.048776247 -0.25099885 -0.059334997
-0.045584042 -0.25099885 -0.059198156
-0.042406052 -0.25099888 -0.059070844
-0.039241217 -0.25099888 -0.058952942
-0.036088515 -0.25099885 -0.058844373
-0.032946937 -0.25099888 -0.058745056
-0.029815473 -0.25099888 -0.058654908
-0.026693132 -0.25099888 -0.058573861
-0.023578933 -0.2509988 -0.058501836
-0.020471921 -0.2509988 -0.058438811
-0.017371133 -0.25099885 -0.058384731
-0.014275606 -0.25099882 -0.058339529
-0.011184405 -0.25099882 -0.058303196
-0.008096586 -0.25099882 -0.0582757
-0.0050112125 -0.25099882 -0.05825701
-0.0019273524 -0.2509988 -0.058247115
0.0011559257 -0.25099882 -0.058246017
0.0042395522 -0.2509988 -0.058253702
0.0073244595 -0.2509988 -0.05827019
0.010411576 -0.25099874 -0.05829547
0.013501843 -0.25099874 -0.058329593
0.016596198 -0.25099877 -0.058372572
0.019695584 -0.25099877 -0.058424436
0.022800947 -0.25099877 -0.058485214
0.025913248 -0.25099874 -0.058554966
0.02903346 -0.25099877 -0.058633752
0.032162547 -0.25099877 -0.058721617
0.035301499 -0.25099874 -0.058818627
0.038451318 -0.25099874 -0.058924872
0.04161302 -0.25099877 -0.059040435
0.044787608 -0.25099868 -0.059165366
0.047976162 -0.25099868 -0.059299823
0.051179722 -0.25099868 -0.059443872
0.054399367 -0.25099868 -0.059597641
0.057636209 -0.25099871 -0.059761252
0.060891353 -0.25099868 -0.059934821
0.064165972 -0.25099871 -0.060118511
0.067461215 -0.25099871 -0.060312457
0.070778288 -0.25099868 -0.060516812
0.074118428 -0.25099871 -0.060731761
0.077482887 -0.25099871 -0.060957469
0.080872938 -0.25099865 -0.061194114
0.084289953 -0.25099865 -0.061441928
0.087735273 -0.25099865 -0.0617011
0.091210313 -0.25099862 -0.061971858
0.094716519 -0.25099865 -0.062254444
0.098255374 -0.25099862 -0.062549092
0.10182843 -0.25099859 -0.062856071
0.10543729 -0.25099862 -0.063175663
0.10908358 -0.25099859 -0.063508153
0.11276902 -0.25099862 -0.063853852
0.11649537 -0.25099862 -0.064213082
0.12026442 -0.25099856 -0.064586148
0.12407812 -0.25099856 -0.064973451
0.12793843 -0.25099856 -0.065375358
0.1318474 -0.25099856 -0.065792255
0.13580714 -0.25099856 -0.066224568
0.13981988 -0.25099856 -0.06667272
0.14388791 -0.25099859 -0.067137182
0.14801362 -0.25099856 -0.067618422
0.15219954 -0.2509985 -0.068116963
0.15644832 -0.25099853 -0.068633363
0.16076265 -0.25099853 -0.069168158
0.16514543 -0.25099853 -0.06972196
0.16959961 -0.25099853 -0.070295386
0.17412832 -0.25099847 -0.0708891
0.17873491 -0.25099844 -0.071503811
0.18342285 -0.25099847 -0.072140276
0.18819568 -0.25099844 -0.072799243
0.19305727 -0.25099847 -0.07348156
0.19801159 -0.25099844 -0.074188083
0.20306288 -0.25099844 -0.07491973
0.20821561 -0.25099847 -0.075677507
0.21347441 -0.25099844 -0.07646241
0.21884428 -0.25099847 -0.077275552
0.2243304 -0.25099844 -0.078118078
0.22993831 -0.25099844 -0.078991234
0.23567392 -0.25099844 -0.079896331
0.24154337 -0.25099844 -0.080834746
0.24755317 -0.25099835 -0.081807926
0.25371048 -0.25099835 -0.082817502
0.26002261 -0.25099835 -0.083865121
0.26649746 -0.25099832 -0.084952563
0.2731435 -0.25099835 -0.086081751
0.27996954 -0.25099832 -0.087254673
0.28698534 -0.25099835 -0.088473566
0.29420096 -0.25099832 -0.089740708
0.30162743 -0.25099829 -0.091058619
0.30927649 -0.25099829 -0.092429981
0.31716061 -0.25099829 -0.093857646
0.32529342 -0.25099829 -0.09534473
0.3336893 -0.25099826 -0.096894532
0.34236401 -0.25099826 -0.098510683
0.35133442 -0.25099829 -0.10019704
0.36061862 -0.2509982 -0.10195775
0.37023658 -0.25099826 -0.10379744
0.38020927 -0.25099811 -0.10572091
0.39056036 -0.25099814 -0.10773364
0.40131482 -0.25099811 -0.10984138
0.41250026 -0.25099811 -0.11205049
0.42414662 -0.25099808 -0.11436788
0.43628675 -0.25099808 -0.11680115
0.44895664 -0.25099805 -0.11935861
0.4621959 -0.25099808 -0.12204943
0.47604787 -0.25099802 -0.12488361
0.49056083 -0.25099802 -0.12787233
0.50578773 -0.25099799 -0.13102785
0.52178764 -0.25099796 -0.13436383
0.53862613 -0.25099793 -0.13789545
0.55637658 -0.25099793 -0.14163972
0.57512081 -0.25099796 -0.14561561
0.59495056 -0.25099784 -0.14984433
0.61596996 -0.25099784 -0.15435006
0.63829601 -0.25099778 -0.15915988
0.66206211 -0.25099781 -0.16430476
0.68741971 -0.25099772 -0.16981977
0.71526957 -0.25125286 -0.17592402
0.71571332 -0.24157415 -0.17529005
0.71613848 -0.23195848 -0.17468311
0.71654475 -0.22240277 -0.17410263
0.71693283 -0.21290429 -0.17354836
0.71730292 -0.20346028 -0.17301986
0.71765518 -0.19406797 -0.17251676
0.71798998 -0.18472473 -0.17203876
0.71830732 -0.1754279 -0.17158547
0.71860754 -0.16617496 -0.17115666
0.71889091 -0.15696341 -0.170752
0.71915758 -0.14779074 -0.17037125
0.71940756 -0.13865456 -0.17001414
0.71964121 -0.12955244 -0.16968045
0.71985859 -0.12048204 -0.16936994
0.72005987 -0.11144105 -0.16908243
0.72024524 -0.10242718 -0.16881777
0.7204147 -0.093438126 -0.16857573
0.72056842 -0.084471673 -0.16835618
0.72070652 -0.075525604 -0.16815898
0.72082901 -0.0665977 -0.16798401
0.72093606 -0.057685804 -0.16783115
0.72102773 -0.048787739 -0.16770031
0.72110391 -0.039901346 -0.16759138
0.72116488 -0.031024504 -0.16750433
0.7212106 -0.022155074 -0.1674391
0.721241 -0.01329093 -0.16739562
0.7212562 -0.0044299578 -0.1673739
0.7212562 0.0044299578 -0.1673739
0.721241 0.01329093 -0.16739562
0.7212106 0.022155074 -0.1674391
0.72116482 0.031024504 -0.16750433
0.72110385 0.039901346 -0.16759136
0.72102773 0.048787739 -0.16770031
0.72093606 0.057685804 -0.16783115
0.72082901 0.0665977 -0.16798401
0.7207064 0.075525582 -0.16815895
0.7205683 0.084471658 -0.16835615
0.72041458 0.093438111 -0.1685757
0.72024512 0.10242715 -0.16881774
0.72005969 0.11144103 -0.1690824
0.71985853 0.12048203 -0.16936992
0.71964109 0.12955242 -0.16968042
0.71940744 0.13865452 -0.1700141
0.71915746 0.14779073 -0.17037123
0.71889079 0.15696338 -0.17075197
0.71860737 0.16617492 -0.17115662
0.71830714 0.17542785 -0.17158544
0.7179898 0.18472469 -0.17203872
0.717655 0.19406793 -0.17251672
0.71730274 0.20346023 -0.17301981
0.71693265 0.21290424 -0.17354831
0.71654457 0.22240271 -0.17410259
0.71613824 0.23195839 -0.17468303
0.7157132 0.24157409 -0.17529
0.71526933 0.25125277 -0.17592396
0.7148062 0.26099735 -0.1765853
0.71432364 0.27081096 -0.17727457
0.71382105 0.2806966 -0.17799215
0.71329838 0.29065761 -0.17873867
0.71275514 0.30069727 -0.17951462
0.71219081 0.31081891 -0.18032055
0.71160501 0.32102606 -0.18115704
0.7109974 0.33132231 -0.18202478
0.7103675 0.3417114 -0.18292439
0.70971477 0.35219711 -0.18385656
0.70903879 0.36278343 -0.18482201
0.70833886 0.37347433 -0.18582146
0.70761484 0.38427418 -0.18685581
0.70686567 0.39518717 -0.18792573
0.70609087 0.40621781 -0.18903217
0.70528984 0.4173708 -0.190176
0.70446205 0.42865098 -0.19135822
0.70360667 0.44006336 -0.19257979
0.70272309 0.45161313 -0.19384179
0.70181042 0.46330562 -0.19514526
0.70086789 0.4751465 -0.19649138
0.69989461 0.48714149 -0.1978813
0.69888979 0.49929672 -0.19931632
0.69785255 0.51161849 -0.20079777
0.69678175 0.52411336 -0.20232698
0.69567651 0.53678805 -0.20390542
0.69453567 0.54964978 -0.20553462
0.69335836 0.56270611 -0.2072162
0.69214296 0.57596457 -0.20895177
0.69088864 0.58943343 -0.21074316
0.68959397 0.60312116 -0.21259217
0.68825758 0.61703676 -0.2145008
0.68687803 0.63118935 -0.21647106
0.68545377 0.6455887 -0.21850511
0.68398327 0.66024512 -0.22060519
0.68246484 0.67516941 -0.22277376
0.6808967 0.69037265 -0.22501326
0.67927712 0.70586699 -0.22732644
0.67760384 0.72166449 -0.22971596
0.67587501 0.7377786 -0.2321849
0.67408854 0.75422311 -0.23473638
0.67224187 0.77101254 -0.23737365
0.67033279 0.78816235 -0.24010025
0.66835845 0.80568856 -0.24291983
0.66631633 0.82360876 -0.24583638
0.66420329 0.84194058 -0.24885395
0.66201651 0.86070377 -0.25197706
0.65975255 0.87991858 -0.25521037
0.657408 0.89960659 -0.25855881
0.65497911 0.9197908 -0.26202771
0.65246183 0.94049561 -0.26562268
0.6498521 0.96174705 -0.26934972
0.64714539 0.98357284 -0.27321523
0.64433712 1.0060028 -0.27722615
0.64142174 1.0290678 -0.28138959
0.63839406 1.052802 -0.28571352
0.6352483 1.0772414 -0.29020634
0.63197798 1.1024246 -0.2948769
0.62857634 1.1283929 -0.29973489
0.62503618 1.1551909 -0.30479068
0.62134987 1.1828668 -0.31005549
0.61750865 1.2114716 -0.31554121
0.61350369 1.2410612 -0.32126093
0.60932511 1.2716955 -0.32722864
0.60496229 1.3034399 -0.33345953
-0.51892543 1.3624606 -0.338321
-0.52538902 1.3300773 -0.33185732
-0.53158069 1.2988292 -0.32566556
-0.53751624 1.2686499 -0.31973001
-0.54321003 1.2394782 -0.31403613
-0.54867566 1.2112575 -0.30857047
-0.55392551 1.1839349 -0.30332065
-0.55897105 1.1574618 -0.29827499
-0.56382304 1.1317925 -0.29342285
-0.56849164 1.1068854 -0.28875431
-0.57298589 1.0827006 -0.28425995
-0.57731497 1.059202 -0.27993134
-0.58148599 1.0363536 -0.27575991
-0.58550781 1.0141256 -0.27173868
-0.58938622 0.99248552 -0.26786003
-0.59312886 0.97140694 -0.26411769
-0.59674114 0.95086181 -0.26050514
-0.60022914 0.93082589 -0.25701666
-0.60359842 0.91127568 -0.25364673
-0.60685426 0.89218944 -0.25039035
-0.61000222 0.87354726 -0.24724287
-0.61304605 0.85532838 -0.24419941
-0.61599004 0.83751434 -0.24125566
-0.61883801 0.82008708 -0.23840742
-0.62159419 0.80303067 -0.23565103
-0.62426245 0.78632987 -0.23298296
-0.62684572 0.76996911 -0.23039961
-0.62934744 0.75393444 -0.22789775
-0.63177079 0.73821282 -0.2254744
-0.6341185 0.72279119 -0.22312656
-0.63205701 0.70283562 -0.21934661
-0.6275869 0.6808548 -0.21487652
-0.62334281 0.65979987 -0.21063238
-0.61930943 0.63960588 -0.20659886
-0.61547238 0.62021363 -0.20276187
-0.61181945 0.60156983 -0.19910887
-0.60833877 0.5836249 -0.19562814
-0.60501975 0.56633389 -0.19230905
-0.60185272 0.54965544 -0.18914188
-0.59882826 0.5335511 -0.18611754
-0.5959388 0.51798624 -0.18322796
-0.59317636 0.50292826 -0.18046544
-0.59053391 0.48834705 -0.17782296
-0.58800501 0.474215 -0.17529404
-0.58558345 0.46050617 -0.17287263
-0.58326411 0.44719696 -0.17055328
-0.58104157 0.4342649 -0.16833074
-0.57891119 0.42168942 -0.1662003
-0.57686812 0.4094508 -0.16415732
-0.54146373 0.37440526 -0.15276207
-0.54053533 0.36403093 -0.15122707
-0.54022574 0.35425523 -0.14991161
-0.54024076 0.34485051 -0.148729
-0.54050577 0.33574709 -0.14765534
-0.541004 0.32691604 -0.14668329
-0.54172933 0.31833637 -0.14580867
-0.54254526 0.30991378 -0.14499263
